x,y,z
0.579158,0.709419,-0.002265
0.573146,0.831663,0.001602
0.004008,0.362725,0.000361
0.617234,0.749499,-0.001273
0.342685,0.791583,0.000661
0.695391,0.324649,0.000131
0.048096,0.422846,-0.000163
0.633267,0.621242,-0.001620
0.038076,0.446894,-0.001601
0.280561,0.747495,-0.000680
0.474950,0.645291,-0.000638
0.130261,0.292585,0.000021
0.380762,0.102204,0.001600
0.268537,0.008016,-0.001247
0.749499,0.523046,-0.000317
0.665331,0.288577,0.000234
0.995992,0.230461,0.002325
0.298597,0.691383,0.000211
0.929860,0.503006,0.000542
0.607214,0.883768,0.000138
0.979960,0.705411,0.000517
0.324649,0.755511,0.000247
0.332665,0.350701,-0.001096
0.821643,0.513026,0.000217
0.763527,0.294589,-0.000824
0.408818,0.214429,-0.000300
0.380762,0.741483,-0.001547
0.034068,0.545090,-0.000220
0.657315,0.192385,0.000860
0.815631,0.701403,-0.000492
0.769539,0.434870,-0.000857
0.831663,0.667335,-0.000905
0.138277,0.034068,0.001031
0.282565,0.869739,-0.000562
0.851703,0.589178,-0.000723
0.757515,0.240481,-0.000075
0.196393,0.282565,0.001181
0.186373,0.567134,0.001021
0.607214,0.450902,0.000258
0.875752,0.416834,0.000366
0.911824,0.967936,0.001161
0.394790,0.609218,-0.000163
0.727455,0.967936,0.001127
0.358717,0.653307,-0.001060
0.929860,0.114228,-0.000484
0.967936,0.104208,0.000343
0.735471,0.418838,0.001016
0.763527,0.737475,-0.000420
0.827655,0.350701,0.000771
0.667335,0.657315,0.000231
0.162325,0.985972,-0.000322
0.482966,0.190381,-0.002497
0.222445,0.414830,-0.001105
0.583166,0.014028,0.000237
0.749499,0.911824,-0.000303
0.865731,0.030060,-0.001383
0.418838,0.751503,0.000012
0.408818,0.725451,-0.002228
0.651303,0.360721,-0.000125
0.192385,0.771543,0.000539
0.625251,0.921844,-0.001561
0.378758,0.102204,0.001333
0.575150,0.577154,-0.000435
0.739479,0.042084,0.000822
0.166333,0.298597,0.000414
0.132265,0.224449,0.000485
0.452906,0.300601,-0.000416
0.260521,0.214429,0.001373
0.062124,0.907816,-0.000480
0.262525,0.787575,-0.002378
0.234469,0.250501,0.001344
0.639279,0.959920,-0.001386
0.194389,0.246493,0.000909
0.711423,0.154309,0.001111
0.264529,0.855711,-0.000941
0.673347,0.008016,0.000833
0.679359,0.006012,0.001105
0.981964,0.422846,0.000644
0.412826,0.631263,-0.000955
0.470942,0.717435,0.000234
0.434870,0.647295,-0.000833
0.494990,0.084168,-0.000039
0.791583,0.699399,-0.000206
0.006012,0.228457,0.002263
0.529058,0.248497,-0.000965
0.390782,0.086172,0.000546
0.997996,0.208417,0.003449
0.765531,0.266533,-0.001094
0.172345,0.975952,-0.000770
0.312625,0.282565,-0.001080
0.388778,0.585170,-0.001312
0.855711,0.472946,0.001212
0.076152,0.444890,0.001059
0.977956,0.963928,-0.001669
0.559118,0.769539,-0.000447
0.364729,0.557114,-0.001608
0.358717,0.511022,-0.002119
0.807615,0.545090,0.000203
0.436874,0.444890,-0.001600
0.044088,0.509018,0.000159
0.274549,0.312625,-0.000358
0.871743,0.486974,0.001434
0.244489,0.963928,-0.000921
0.170341,0.955912,-0.000108
0.787575,0.356713,-0.000465
0.629259,0.741483,-0.001156
0.865731,0.134269,-0.000187
0.092184,0.214429,0.002911
0.753507,0.058116,0.000895
0.274549,0.044088,-0.000329
0.238477,0.176353,0.001511
0.246493,0.885772,-0.001258
0.873747,0.142285,-0.000430
0.901804,0.294589,0.000859
0.264529,0.911824,-0.000137
0.695391,0.501002,0.001078
0.777555,0.212425,0.001881
0.236473,0.480962,0.000727
0.378758,0.909820,-0.001700
0.226453,0.464930,0.000190
0.214429,0.318637,-0.001113
0.887776,0.022044,-0.000316
0.434870,0.126253,0.001071
0.843687,0.971944,-0.002587
0.166333,0.987976,-0.000925
0.871743,0.961924,-0.000874
0.040080,0.587174,0.000948
0.164329,0.765531,-0.000728
0.605210,0.372745,-0.001683
0.286573,0.985972,-0.000422
0.090180,0.867735,0.001398
0.629259,0.977956,-0.000495
0.336673,0.406814,0.001102
0.174349,0.949900,0.000388
0.108216,0.238477,0.001382
0.040080,0.004008,-0.000051
0.148297,0.190381,0.000257
0.208417,0.923848,-0.001453
0.671343,0.106212,-0.000253
0.030060,0.168337,0.003011
0.404810,0.787575,0.002135
0.585170,0.214429,-0.000835
0.977956,0.024048,0.000014
0.661323,0.845691,0.000284
0.454910,0.677355,-0.000419
0.585170,0.907816,-0.000513
0.959920,0.501002,0.000177
0.579158,0.895792,-0.000118
0.434870,0.661323,0.000320
0.448898,0.096192,-0.000285
0.068136,0.567134,0.000061
0.324649,0.162325,0.000256
0.428858,0.579158,-0.000054
0.114228,0.759519,-0.001086
0.671343,0.450902,0.000216
0.164329,0.891784,-0.000349
0.308617,0.613226,-0.001519
0.060120,0.747495,0.000584
0.553106,0.969940,0.000633
0.142285,0.364729,0.001700
0.480962,0.382766,-0.000564
0.851703,0.104208,-0.000969
0.773547,0.080160,0.000695
0.230461,0.294589,0.000959
0.703407,0.400802,-0.000238
0.883768,0.633267,-0.001629
0.460922,0.621242,-0.000420
0.370741,0.086172,0.001661
0.523046,0.202405,-0.000764
0.805611,0.839679,0.000501
0.320641,0.799599,-0.001312
0.048096,0.078156,0.000552
0.074148,0.979960,0.000254
0.979960,0.885772,0.000109
0.386774,0.627255,-0.000899
0.779559,0.226453,0.000915
0.280561,0.400802,0.000687
0.308617,0.923848,-0.002374
0.905812,0.921844,0.000527
0.581162,0.977956,0.000119
0.176353,0.158317,0.001571
0.597194,0.861723,-0.001621
0.755511,0.737475,-0.000251
0.002004,0.681363,0.001298
0.903808,0.458918,0.002136
0.833667,0.164329,0.001600
0.088176,0.537074,-0.000210
0.897796,0.887776,0.000246
0.284569,0.931864,-0.000396
0.060120,0.649299,-0.000156
0.284569,0.112224,-0.000070
0.887776,0.336673,0.000264
0.418838,0.801603,0.001390
0.699399,0.873747,-0.001319
0.034068,0.360721,0.000256
0.793587,0.304609,-0.002157
0.000000,0.390782,0.001563
0.386774,0.723447,-0.001885
0.871743,0.845691,0.000206
0.665331,0.525050,0.000657
0.769539,0.615230,-0.001339
0.224449,0.691383,-0.000903
0.228457,0.767535,-0.002227
0.138277,0.356713,0.000606
0.753507,0.751503,0.000160
0.653307,0.769539,-0.000736
0.234469,0.202405,0.001321
0.180361,0.601202,0.001999
0.176353,0.533066,0.001000
0.256513,0.713427,0.000429
0.332665,0.258517,-0.001127
0.935872,0.939880,0.000405
0.967936,0.633267,0.001127
0.611222,0.911824,-0.000505
0.010020,0.026052,-0.000162
0.320641,0.527054,-0.000675
0.058116,0.436874,-0.000051
0.559118,0.098196,-0.000104
0.486974,0.593186,-0.000671
0.893788,0.737475,0.000255
0.384770,0.288577,0.000162
0.931864,0.230461,0.002438
0.531062,0.621242,-0.000533
0.066132,0.967936,0.000821
0.044088,0.138277,0.002263
0.549098,0.767535,-0.000858
0.192385,0.579158,0.000971
0.533066,0.288577,-0.000277
0.545090,0.034068,-0.000450
0.513026,0.521042,-0.001168
0.531062,0.364729,0.000364
0.228457,0.352705,-0.000789
0.136273,0.390782,0.000814
0.843687,0.444890,0.002069
0.078156,0.300601,-0.001192
0.523046,0.665331,-0.001394
0.681363,0.030060,0.000030
0.420842,0.709419,-0.001890
0.152305,0.388778,-0.000518
0.360721,0.527054,-0.001145
0.523046,0.863727,0.000477
0.224449,0.072144,-0.001169
0.364729,0.046092,0.000840
0.971944,0.038076,-0.000929
0.835671,0.799599,0.000327
0.621242,0.168337,0.001305
0.442886,0.811623,0.000552
0.571142,0.513026,-0.001664
0.108216,0.070140,0.000639
0.613226,0.334669,-0.000022
0.436874,0.803607,0.000782
0.032064,0.452906,-0.002000
0.174349,0.304609,-0.000215
0.374749,0.072144,0.001002
0.372745,0.318637,-0.001395
0.274549,0.749499,-0.000144
0.196393,0.184369,0.002251
0.609218,0.372745,-0.001531
0.635271,0.859719,-0.000205
0.342685,0.326653,-0.001125
0.541082,0.613226,-0.000829
0.486974,0.350701,0.000344
0.178357,0.108216,0.001194
0.935872,0.867735,-0.001044
0.985972,0.310621,0.001348
0.769539,0.454910,-0.000820
0.753507,0.026052,0.000713
0.286573,0.016032,-0.002053
0.583166,0.220441,-0.000569
0.723447,0.623246,-0.000851
0.248497,0.605210,-0.000685
0.054108,0.090180,0.001263
0.683367,0.553106,0.001300
0.691383,0.314629,-0.000119
0.114228,0.106212,-0.000535
0.038076,0.817635,0.000693
0.092184,0.903808,0.000620
0.679359,0.903808,-0.001198
0.975952,0.695391,0.000366
0.458918,0.252505,-0.001376
0.651303,0.062124,-0.000033
0.911824,0.815631,-0.000601
0.521042,0.470942,-0.001249
0.733467,0.270541,-0.001574
0.422846,0.539078,0.000199
0.919840,0.470942,0.000916
0.292585,0.571142,0.000479
0.565130,0.565130,-0.000346
0.194389,0.575150,0.000667
0.110220,0.032064,-0.000311
0.539078,0.669339,0.000227
0.611222,0.278557,0.000754
0.118236,0.587174,0.000032
0.338677,0.158317,0.000135
0.190381,0.993988,-0.000460
0.695391,0.831663,-0.000354
0.601202,0.835671,-0.000496
0.122244,0.310621,-0.000104
0.400802,0.865731,-0.000493
0.008016,0.875752,0.001067
0.212425,0.066132,-0.001125
0.256513,0.625251,-0.001191
0.084168,0.448898,0.001240
0.396794,0.655311,-0.000725
0.234469,0.693387,-0.000440
0.124248,0.647295,0.000581
0.569138,0.815631,0.000880
0.224449,0.070140,-0.001325
0.937876,0.683367,-0.000050
0.895792,0.172345,-0.000626
0.987976,0.755511,-0.000944
0.877756,0.230461,-0.000285
0.523046,0.448898,0.000103
0.511022,0.498998,-0.001691
0.839679,0.000000,-0.002083
0.617234,0.406814,0.000917
0.607214,0.795591,-0.000636
0.202405,0.671343,0.000193
0.657315,0.368737,-0.000021
0.721443,0.488978,-0.000330
0.975952,0.472946,-0.000081
0.661323,0.689379,-0.000533
0.284569,0.791583,-0.002866
0.224449,0.967936,-0.000826
0.206413,0.777555,-0.000727
0.553106,0.625251,-0.001092
0.755511,0.030060,0.000056
0.172345,0.372745,0.000767
0.613226,0.074148,0.001821
0.302605,0.202405,0.001891
0.170341,0.138277,0.001109
0.651303,0.034068,-0.000157
0.631263,0.621242,-0.001616
0.180361,0.557114,0.002170
0.631263,0.681363,-0.001655
0.895792,0.653307,-0.000964
0.066132,0.352705,0.000455
0.080160,0.068136,0.000315
0.114228,0.088176,-0.000803
0.062124,0.384770,0.000439
0.631263,0.727455,-0.001236
0.130261,0.348697,0.001357
0.368737,0.709419,-0.000952
0.985972,0.202405,0.003041
0.190381,0.723447,-0.001659
0.651303,0.513026,0.001175
0.819639,0.306613,-0.001263
0.354709,0.783567,0.001017
0.090180,0.607214,0.000522
0.909820,1.000000,0.000743
0.729459,0.412826,0.001025
0.989980,0.579158,-0.000178
0.521042,0.959920,0.000598
0.188377,0.979960,-0.000367
0.539078,0.316633,-0.001173
0.402806,0.102204,0.002268
0.743487,0.080160,0.000402
0.174349,0.659319,0.000019
0.104208,0.725451,-0.000291
0.935872,0.084168,0.000223
0.845691,0.422846,-0.000299
0.118236,0.545090,0.000045
0.703407,0.288577,-0.000032
0.140281,0.753507,-0.000995
0.689379,0.078156,0.000679
0.072144,0.521042,-0.000109
0.312625,0.474950,0.000055
0.410822,0.657315,0.000013
0.276553,0.931864,-0.000149
0.404810,0.683367,-0.000879
0.344689,0.390782,0.000466
0.857715,0.881764,0.000924
0.841683,0.304609,0.000271
0.214429,0.160321,0.000671
0.434870,0.903808,0.000131
0.252505,0.254509,0.001590
0.460922,0.589178,-0.001162
0.006012,0.725451,0.000095
0.701403,0.715431,-0.001837
0.971944,0.539078,0.000303
0.843687,0.917836,0.000666
0.154309,0.547094,0.002197
0.973948,0.412826,-0.000467
0.949900,0.138277,-0.001278
0.575150,0.334669,-0.000210
0.122244,0.304609,0.000219
0.901804,0.599198,-0.001138
0.787575,0.388778,-0.000830
0.521042,0.869739,0.000584
0.783567,0.579158,-0.000830
0.114228,0.026052,-0.000433
0.482966,0.428858,0.000428
0.454910,0.543086,-0.000065
0.202405,0.412826,-0.000138
0.190381,0.300601,-0.000587
0.086172,0.959920,0.000260
0.771543,0.851703,0.000024
0.951904,0.244489,0.002181
0.332665,0.100200,0.000602
0.458918,0.242485,-0.001670
0.246493,0.575150,-0.000295
0.865731,0.402806,0.000189
0.861723,0.933868,0.000142
0.965932,0.350701,0.001815
0.168337,0.424850,-0.000752
0.246493,0.130261,0.000798
0.721443,0.521042,0.000574
0.763527,0.270541,-0.001182
0.258517,0.995992,-0.001122
0.533066,0.797595,0.000052
0.392786,0.705411,0.000195
0.322645,0.480962,-0.000182
0.210421,0.210421,0.002198
0.092184,0.050100,0.000321
0.907816,0.428858,0.001879
0.292585,0.060120,0.000178
0.865731,0.525050,0.001214
0.587174,0.050100,0.000808
0.993988,0.134269,0.001098
0.144289,0.913828,0.000631
0.619238,0.246493,-0.001204
0.238477,0.607214,-0.000658
0.577154,0.793587,0.001973
0.098196,0.975952,-0.000606
0.831663,0.438878,0.001373
0.749499,0.004008,-0.000004
0.152305,0.587174,0.001504
0.082164,0.583166,0.001666
0.893788,0.194389,0.000601
0.623246,0.885772,0.000545
0.224449,0.563126,0.001038
0.607214,0.541082,0.000293
0.789579,0.146293,0.001016
0.743487,0.707415,-0.001611
0.370741,0.222445,-0.000688
0.825651,0.142285,0.000740
0.905812,0.456914,0.001825
0.549098,0.126253,0.000394
0.450902,0.567134,-0.001059
0.807615,0.651303,0.000524
0.767535,0.741483,0.000515
0.755511,0.376754,0.000763
0.318637,0.428858,0.000860
0.436874,0.743487,-0.000149
0.472946,0.282565,-0.001178
0.501002,0.176353,-0.002487
0.172345,0.142285,0.001179
0.875752,0.867735,0.000860
0.741483,0.643287,-0.000731
0.496994,0.983968,0.001212
0.046092,0.116232,0.001442
0.184369,0.745491,-0.000766
0.106212,0.050100,0.000393
0.142285,0.797595,-0.000619
0.446894,0.088176,-0.000357
0.128257,0.641283,0.000592
0.561122,1.000000,-0.000060
0.022044,0.787575,-0.000094
0.200401,0.655311,-0.000155
0.613226,0.619238,-0.000519
0.877756,0.967936,-0.002257
0.208417,0.316633,-0.001448
0.803607,0.653307,0.000816
0.667335,0.492986,0.000140
0.256513,0.561122,-0.000195
0.152305,0.781563,0.001229
0.370741,0.360721,-0.000679
0.837675,0.829659,0.000463
0.759519,0.957916,0.000214
0.444890,0.507014,0.000259
0.753507,0.284569,-0.000954
0.565130,0.016032,-0.000292
0.659319,0.392786,0.001094
0.034068,0.843687,0.001666
0.148297,0.753507,-0.000720
0.238477,0.845691,0.000203
0.376754,0.903808,-0.000981
0.609218,0.567134,-0.001040
0.865731,0.727455,-0.000745
0.731463,0.130261,-0.000949
0.086172,0.232465,0.002604
0.511022,0.587174,-0.000763
0.945892,0.527054,-0.000063
0.571142,0.292585,-0.000163
0.194389,0.589178,0.001030
0.366733,0.935872,-0.001054
0.837675,0.298597,0.000188
0.891784,0.949900,0.000094
0.170341,0.216433,0.001200
0.344689,0.396794,0.000269
0.633267,0.146293,0.000160
0.929860,0.949900,0.000956
0.480962,0.486974,-0.000730
0.300601,0.981964,-0.001318
1.000000,0.893788,-0.000072
0.262525,0.761523,-0.000810
0.300601,0.869739,-0.001005
0.142285,0.492986,0.000548
0.474950,0.296593,-0.000653
0.955912,0.432866,-0.000368
0.743487,0.498998,0.000327
0.348697,0.074148,0.000388
0.781563,0.076152,0.000876
0.320641,0.695391,-0.000692
0.228457,0.210421,0.001876
0.803607,0.490982,-0.002182
0.875752,0.072144,-0.000354
0.887776,0.839679,0.000584
0.224449,0.428858,-0.000849
0.336673,0.006012,-0.001087
0.492986,0.979960,0.001846
0.597194,0.647295,-0.001741
0.859719,0.539078,0.000420
0.517034,0.887776,0.001749
0.180361,0.422846,0.000421
0.340681,0.505010,-0.002067
0.184369,0.374749,0.001683
0.687375,0.831663,-0.000157
0.877756,0.076152,-0.000503
0.416834,0.198397,0.000026
0.096192,0.737475,0.000523
0.042084,0.669339,0.000135
0.118236,0.881764,0.000801
0.490982,0.953908,0.001638
0.462926,0.094188,0.000231
0.474950,0.082164,0.000532
0.837675,0.509018,0.000381
0.887776,0.719439,0.000781
0.761523,0.609218,-0.001446
0.164329,0.621242,0.001414
0.721443,0.567134,0.000304
0.931864,0.454910,0.000907
0.302605,0.458918,0.000683
0.863727,0.194389,0.000823
0.360721,0.541082,-0.000763
0.234469,0.863727,0.000192
0.106212,0.172345,0.000622
0.148297,0.360721,0.000719
0.040080,0.841683,0.001224
0.583166,0.643287,-0.002442
0.803607,0.416834,0.001612
0.162325,0.705411,0.000465
0.741483,0.070140,0.000542
0.330661,0.380762,0.000233
0.623246,0.647295,-0.001217
0.304609,0.244489,-0.000030
0.438878,0.120240,0.000761
0.727455,0.466934,-0.000581
0.290581,0.619238,-0.000714
0.639279,0.382766,0.000678
0.384770,0.430862,-0.001669
0.154309,0.767535,-0.000105
0.120240,0.410822,0.001427
0.813627,0.549098,0.000518
0.645291,0.216433,-0.000135
0.488978,0.498998,0.000198
0.386774,0.394790,-0.001316
0.198397,0.851703,-0.001226
0.729459,0.845691,0.001801
0.130261,0.252505,0.001488
0.577154,0.875752,-0.000365
0.066132,0.210421,0.002054
0.609218,0.122244,-0.002717
0.573146,0.142285,-0.000601
0.410822,0.833667,0.001359
1.000000,0.997996,-0.000997
0.835671,0.549098,-0.000852
0.422846,0.096192,0.001112
0.673347,0.498998,0.000774
0.300601,0.583166,-0.000173
0.535070,0.234469,0.000199
0.300601,0.488978,0.001169
0.715431,0.651303,-0.001297
0.995992,0.601202,-0.000627
0.334669,0.258517,-0.001124
0.326653,0.775551,-0.000325
0.418838,0.881764,0.000769
0.815631,0.513026,0.000587
0.012024,0.559118,-0.000859
0.739479,0.959920,0.000455
0.925852,0.879760,-0.000547
0.226453,0.705411,-0.000644
0.452906,0.454910,-0.000064
0.711423,0.324649,-0.000685
0.364729,0.619238,-0.000984
0.032064,0.134269,0.002599
0.873747,0.879760,0.001774
0.689379,0.490982,0.000316
0.046092,0.697395,0.000386
0.280561,0.212425,0.001183
0.803607,0.621242,-0.001024
0.501002,0.745491,-0.000017
0.605210,0.683367,-0.000885
0.160321,0.549098,0.001883
0.472946,0.857715,-0.001162
0.434870,0.911824,-0.000144
0.486974,0.236473,-0.001868
0.907816,0.480962,0.001405
0.561122,0.044088,-0.000080
0.993988,0.250501,0.002331
0.585170,0.665331,-0.001558
0.825651,0.034068,-0.000951
0.963928,0.545090,-0.000101
0.933868,0.308617,0.000887
0.629259,0.643287,-0.000706
0.789579,0.392786,-0.000019
0.200401,0.609218,0.002294
0.733467,0.995992,-0.000535
0.671343,0.879760,-0.000770
0.707415,0.567134,0.000751
0.575150,0.977956,0.000567
0.869739,0.336673,-0.000226
0.004008,0.238477,0.002743
0.623246,0.068136,0.001014
0.038076,0.490982,-0.000607
0.372745,0.470942,-0.000485
0.192385,0.711423,-0.000906
0.220441,0.589178,-0.000691
0.525050,0.697395,-0.000605
0.533066,0.701403,-0.001213
0.809619,0.715431,-0.000064
0.256513,0.513026,0.000607
0.484970,0.472946,-0.000689
0.533066,0.781563,-0.000991
0.476954,0.931864,0.000874
0.865731,0.661323,-0.000521
0.182365,0.823647,-0.000039
0.138277,0.438878,-0.000192
0.450902,0.975952,0.001586
0.150301,0.328657,0.000935
0.388778,0.350701,-0.000387
0.100200,0.813627,0.000683
0.673347,0.374749,0.000653
0.224449,0.599198,-0.000386
0.110220,0.777555,-0.000393
0.198397,0.707415,-0.000139
0.645291,0.132265,-0.000074
0.613226,0.482966,0.001534
0.853707,0.819639,0.001186
0.805611,0.390782,0.000334
0.733467,0.090180,0.001071
0.815631,0.507014,-0.000234
0.448898,0.474950,0.000435
0.234469,0.851703,0.000012
0.280561,0.110220,0.000399
0.098196,0.981964,-0.000274
0.086172,0.905812,-0.000161
0.747495,0.168337,0.000352
0.182365,0.993988,-0.000565
0.448898,0.156313,-0.000464
0.394790,0.873747,-0.000321
0.671343,0.302605,-0.000039
0.312625,0.018036,-0.000149
0.747495,0.991984,-0.000446
0.426854,0.152305,0.000198
0.855711,0.883768,0.000978
0.759519,0.731463,-0.000516
0.983968,0.348697,0.001300
0.464930,0.228457,-0.001657
0.036072,0.839679,0.001381
0.969940,0.791583,-0.000051
0.426854,0.088176,0.001335
0.991984,0.364729,0.000394
0.040080,0.951904,0.001436
0.705411,0.903808,-0.001229
0.112224,0.831663,0.001523
0.951904,0.741483,0.001168
0.917836,0.492986,0.001096
0.687375,0.841683,0.000320
0.298597,0.142285,0.001839
0.094188,0.721443,-0.000518
0.460922,0.046092,0.001414
0.178357,0.993988,-0.000431
0.825651,0.326653,0.000270
0.418838,0.126253,0.002227
0.284569,0.835671,-0.001910
0.454910,0.040080,0.001994
0.705411,0.188377,0.000610
0.811623,0.801603,0.000804
0.418838,0.851703,0.001774
0.907816,0.777555,0.000820
0.082164,0.288577,0.000675
0.330661,0.705411,-0.001400
0.543086,0.819639,0.000298
0.967936,0.963928,-0.000989
0.118236,0.817635,-0.000731
0.338677,0.012024,-0.000074
0.366733,0.164329,-0.000604
0.448898,0.621242,-0.000469
0.975952,0.869739,-0.000697
0.927856,0.396794,0.001322
0.603206,0.398798,-0.000888
0.681363,0.200401,-0.000097
0.857715,0.813627,0.001148
0.985972,0.861723,0.000209
0.597194,0.378758,-0.001071
0.000000,0.523046,-0.000766
0.765531,0.597194,-0.000972
0.294589,0.981964,-0.001327
0.360721,0.789579,0.001557
0.304609,0.112224,0.000140
0.298597,0.767535,-0.000817
0.645291,0.953908,-0.000898
0.945892,0.306613,0.000644
0.320641,0.212425,0.001554
0.695391,0.981964,0.000757
0.126253,0.627255,0.000746
0.294589,0.863727,-0.001316
0.066132,0.192385,0.001197
0.783567,0.200401,0.001765
0.857715,0.106212,-0.001095
0.537074,0.426854,-0.000042
0.168337,0.482966,0.000361
0.923848,0.252505,0.001740
0.360721,0.767535,0.000266
0.535070,0.639279,-0.001557
0.308617,0.380762,-0.000478
0.981964,0.615230,0.000821
0.012024,0.458918,-0.001064
0.428858,0.627255,-0.000901
0.763527,0.482966,-0.000192
0.316633,0.286573,-0.000602
0.256513,0.316633,-0.000231
0.378758,0.763527,0.001027
0.541082,0.006012,0.000433
0.669339,0.172345,0.000400
0.759519,0.595190,-0.000854
0.260521,0.404810,-0.000679
0.468938,0.705411,0.000258
0.384770,0.583166,-0.001243
0.254509,0.454910,-0.000373
0.663327,0.160321,0.000913
0.026052,0.923848,0.001831
0.150301,0.579158,0.002223
0.254509,0.987976,-0.001397
0.352705,0.498998,-0.002592
0.711423,0.755511,-0.001410
0.334669,0.873747,0.000439
0.068136,0.146293,0.001699
0.228457,0.591182,-0.000249
0.256513,0.517034,-0.000010
0.623246,0.314629,-0.000852
0.575150,0.635271,-0.002169
0.511022,0.218437,-0.002198
0.511022,0.979960,0.001184
0.084168,0.044088,0.000564
0.220441,0.607214,0.000609
0.613226,0.028056,0.001006
0.861723,0.456914,0.001293
0.024048,0.338677,-0.000646
0.264529,0.545090,0.001325
0.535070,0.575150,0.000638
0.228457,0.146293,0.000352
0.723447,0.945892,0.000604
0.350701,0.769539,0.000605
0.426854,0.462926,-0.000655
0.669339,0.811623,0.000369
0.160321,0.875752,-0.000414
0.208417,0.841683,-0.001203
0.020040,0.390782,0.001363
0.210421,0.815631,0.000653
0.474950,0.849699,-0.000576
0.551102,0.693387,-0.001320
0.699399,0.034068,-0.000652
0.260521,0.406814,-0.000632
0.871743,0.911824,0.001612
0.182365,0.769539,-0.000181
0.593186,0.472946,-0.000198
0.763527,0.549098,0.001397
0.266533,0.993988,-0.000699
0.977956,0.268537,0.001311
0.184369,0.014028,0.001538
0.462926,0.172345,-0.001336
0.090180,0.781563,-0.000393
0.943888,0.759519,-0.000645
0.288577,0.659319,-0.000702
0.789579,0.797595,-0.001388
0.026052,0.146293,0.002138
0.953908,0.611222,-0.000191
0.935872,0.204409,0.001003
0.452906,0.511022,0.001184
0.280561,0.661323,-0.001544
0.683367,0.915832,-0.001107
0.336673,0.753507,0.000451
0.414830,0.549098,0.001151
0.248497,0.074148,-0.000972
0.020040,0.294589,-0.000342
0.711423,0.462926,0.000389
0.683367,0.871743,-0.001142
0.515030,0.470942,-0.000821
0.460922,0.951904,0.001152
0.056112,0.877756,0.000594
0.242485,0.178357,0.001700
0.947896,0.919840,0.000499
0.735471,0.094188,0.000425
0.517034,0.346693,0.000527
0.771543,0.637275,0.000068
0.801603,0.625251,-0.000813
0.218437,0.743487,-0.001940
0.010020,0.132265,0.002282
0.705411,0.827655,-0.000898
0.961924,0.881764,-0.001159
0.519038,0.737475,-0.000076
0.126253,0.130261,0.001475
0.991984,0.352705,0.000665
0.607214,0.765531,0.000257
0.106212,0.492986,-0.000401
0.703407,0.146293,-0.000001
0.917836,0.330661,0.000134
0.496994,0.741483,0.000020
0.140281,0.424850,-0.000473
0.442886,0.060120,0.001206
0.090180,0.016032,-0.000998
0.218437,0.869739,-0.000896
0.719439,0.571142,0.000449
0.322645,0.739479,0.000143
0.839679,0.555110,-0.000361
0.242485,0.228457,0.001275
0.763527,0.939880,-0.000572
0.052104,0.813627,0.001078
0.264529,0.813627,-0.001633
0.432866,0.378758,-0.000430
0.669339,0.743487,-0.001972
0.130261,0.088176,0.000370
0.885772,0.815631,0.000562
0.112224,0.078156,0.000145
0.711423,0.400802,0.000683
0.498998,0.711423,0.000004
0.815631,0.032064,-0.001117
0.513026,0.947896,0.000855
0.585170,0.448898,-0.000139
0.699399,0.613226,-0.000916
0.226453,0.376754,-0.001239
0.845691,0.747495,-0.000760
0.505010,0.430862,0.000256
0.733467,0.767535,0.000560
0.276553,0.188377,0.001169
0.456914,0.044088,0.001653
0.052104,0.476954,-0.000710
0.142285,0.144289,0.002169
0.090180,0.438878,0.001326
0.825651,0.981964,-0.002615
0.480962,0.046092,0.001375
0.675351,0.498998,0.001077
0.767535,0.094188,0.000811
0.595190,0.094188,-0.000709
0.138277,0.683367,-0.000103
0.146293,0.555110,0.002484
0.825651,0.266533,-0.000784
0.867735,0.965932,-0.001660
0.707415,0.270541,-0.001533
0.490982,0.615230,-0.001032
0.877756,0.857715,0.000121
0.823647,0.190381,0.001388
0.647295,0.511022,0.001377
0.012024,0.002004,-0.000645
0.466934,0.234469,-0.001802
0.819639,0.468938,0.001250
0.044088,0.048096,0.001710
0.428858,0.370741,-0.000744
0.360721,0.034068,0.001114
0.855711,0.348697,-0.000110
0.973948,0.725451,0.001293
0.148297,0.831663,-0.000452
0.737475,0.883768,-0.001156
0.511022,0.973948,0.001229
0.877756,0.741483,-0.000525
0.595190,0.859719,-0.001582
0.579158,0.905812,0.000654
0.142285,0.170341,0.000561
0.006012,0.895792,0.000289
0.663327,0.565130,-0.000198
0.152305,0.402806,-0.000863
0.384770,0.220441,-0.000849
0.659319,0.931864,-0.001141
0.803607,0.691383,-0.000762
0.180361,0.020040,0.001391
0.557114,0.392786,-0.000329
0.302605,0.625251,-0.001352
0.501002,0.460922,0.000485
0.296593,0.370741,-0.000400
0.953908,0.172345,-0.000425
0.717435,0.268537,-0.001412
0.737475,0.234469,-0.000787
0.937876,0.478958,0.000715
0.619238,0.763527,-0.000158
0.470942,0.583166,-0.000722
0.641283,0.290581,0.000526
0.196393,0.366733,0.001009
0.589178,0.927856,-0.000993
0.236473,0.474950,0.000241
0.338677,0.044088,0.000009
0.392786,0.144289,-0.000859
0.911824,0.561122,0.000582
0.783567,0.781563,0.000630
0.384770,0.989980,-0.000052
0.064128,0.523046,-0.000006
0.190381,0.386774,0.002113
0.364729,0.388778,0.000253
0.885772,0.038076,-0.000582
0.466934,0.342685,0.001522
0.703407,0.042084,-0.000111
0.014028,0.364729,0.000576
0.731463,0.571142,-0.000069
0.835671,0.641283,-0.001429
0.737475,0.312625,0.000039
0.747495,0.130261,-0.000668
0.024048,0.791583,0.001009
0.450902,0.064128,0.001636
0.877756,0.957916,-0.001522
0.398798,0.430862,-0.001840
0.509018,0.533066,-0.001047
0.028056,0.503006,0.000249
0.288577,0.094188,0.000599
0.204409,0.392786,0.000721
0.997996,0.482966,-0.000657
0.488978,0.747495,-0.000056
0.839679,0.294589,0.000253
0.300601,0.935872,-0.000426
0.104208,0.012024,-0.000738
0.044088,0.080160,0.000662
0.016032,0.414830,0.000162
0.995992,0.428858,0.000011
0.823647,0.993988,-0.002537
0.040080,0.545090,0.000064
0.607214,0.164329,-0.000451
0.537074,0.965932,0.000409
0.783567,0.691383,0.000074
0.344689,0.619238,-0.000523
0.965932,0.330661,0.001179
0.124248,0.511022,0.000968
0.140281,0.553106,0.001646
0.831663,0.338677,-0.000111
0.216433,0.511022,0.000889
0.565130,0.643287,-0.001373
0.414830,0.208417,-0.000252
0.831663,0.897796,-0.002372
0.553106,0.667335,0.000107
0.358717,0.737475,0.000381
0.755511,0.877756,-0.000680
0.865731,0.767535,0.000097
0.478958,0.977956,0.001931
0.362725,0.561122,-0.001414
0.006012,0.382766,0.000150
0.166333,0.360721,0.000498
0.232465,0.805611,-0.000395
0.028056,0.256513,0.001520
0.362725,0.054108,0.000378
0.787575,0.587174,-0.001302
0.062124,0.563126,-0.000406
0.004008,0.817635,0.001106
0.953908,0.827655,-0.001478
0.150301,0.284569,0.000053
0.711423,0.513026,-0.000125
0.182365,0.300601,0.000412
0.050100,0.897796,0.000169
0.527054,0.907816,-0.000133
0.743487,0.939880,0.000592
0.242485,0.206413,0.001766
0.507014,0.066132,-0.000239
0.963928,0.639279,0.001294
0.022044,0.220441,0.003202
0.358717,0.745491,0.000762
0.216433,0.430862,-0.001096
0.773547,0.505010,-0.001708
0.899800,0.118236,-0.001617
0.182365,0.767535,-0.000272
0.456914,0.765531,-0.000312
0.388778,0.889780,-0.001042
0.739479,0.368737,0.000152
0.859719,0.162325,0.000575
0.699399,0.152305,0.000351
0.164329,0.402806,-0.000565
0.643287,0.294589,-0.000199
0.496994,0.577154,-0.000531
0.671343,0.216433,0.000484
0.839679,0.426854,0.000533
0.855711,0.757515,-0.001111
0.258517,0.272545,0.000712
0.388778,0.715431,-0.000741
0.791583,0.587174,-0.001109
0.000000,0.789579,0.000329
0.442886,0.052104,0.001385
0.819639,0.352705,0.001355
0.515030,0.368737,0.000647
0.579158,0.567134,0.000163
0.973948,0.517034,0.000822
0.124248,0.210421,0.001047
0.965932,0.523046,0.001776
0.390782,0.382766,-0.000787
0.392786,0.725451,-0.001875
0.899800,0.581162,-0.000984
0.815631,0.200401,0.001564
0.693387,0.809619,0.000128
0.434870,0.204409,-0.000496
0.529058,0.334669,-0.000067
0.450902,0.358717,0.000436
0.567134,0.661323,-0.000923
0.827655,0.040080,-0.001222
0.833667,0.184369,0.002384
0.252505,0.314629,-0.000345
0.711423,0.128257,-0.000253
0.657315,0.270541,0.001017
0.629259,0.154309,0.000674
0.759519,0.745491,0.000297
0.855711,0.595190,-0.000981
0.555110,0.274549,0.000142
0.529058,0.414830,-0.000686
0.837675,0.879760,-0.000967
0.545090,0.979960,0.000845
0.124248,0.869739,0.000394
0.138277,0.551102,0.001597
0.118236,0.086172,-0.000858
0.160321,0.036072,0.001381
0.436874,0.525050,-0.001166
0.661323,0.048096,-0.000347
0.226453,0.867735,-0.000515
0.557114,0.462926,-0.000649
0.945892,0.543086,0.001403
0.551102,0.324649,-0.000359
0.168337,0.913828,0.001160
0.326653,0.791583,-0.001461
0.791583,0.993988,-0.000974
0.122244,0.136273,0.001749
0.727455,0.176353,0.000452
0.390782,0.188377,-0.000496
0.659319,0.460922,0.000464
0.843687,0.004008,-0.002837
0.198397,0.615230,0.002094
0.611222,0.591182,-0.000650
0.210421,0.074148,-0.001513
0.929860,0.795591,-0.000656
0.386774,0.905812,-0.001636
0.360721,0.420842,0.001262
0.166333,0.160321,0.002131
0.428858,0.605210,-0.000543
0.541082,0.501002,-0.001107
0.795591,0.496994,-0.001884
0.414830,0.655311,-0.000004
0.482966,0.879760,-0.000349
0.723447,0.492986,-0.000155
0.857715,0.795591,0.000833
0.829659,0.587174,-0.001699
0.116232,0.174349,0.001376
0.685371,0.008016,0.000423
0.114228,0.456914,0.000528
0.569138,0.897796,-0.000372
0.146293,0.442886,0.000103
0.330661,0.022044,0.000416
0.675351,0.591182,-0.000815
0.252505,0.416834,-0.001408
0.611222,0.174349,0.000261
0.136273,0.959920,0.000383
0.769539,0.767535,0.001696
1.000000,0.306613,0.000499
0.388778,0.899800,-0.001824
0.939880,0.929860,-0.000345
0.711423,0.444890,0.000720
0.108216,0.280561,0.000098
0.863727,0.901804,0.000712
0.793587,0.236473,0.001145
0.755511,0.505010,0.000016
0.422846,0.825651,0.001588
0.374749,0.192385,-0.000792
0.875752,0.607214,-0.001159
0.092184,0.348697,0.001260
0.863727,0.853707,-0.000740
0.913828,0.232465,0.001675
0.943888,0.593186,-0.000704
0.436874,0.991984,0.000856
0.268537,0.494990,0.000112
0.729459,0.028056,0.001980
0.785571,0.192385,0.002107
0.458918,0.116232,0.000465
0.374749,0.613226,-0.001727
0.617234,0.597194,-0.000953
0.268537,0.559118,0.000674
0.949900,0.476954,0.000504
0.679359,0.601202,-0.001354
0.673347,0.198397,-0.000013
0.498998,0.619238,-0.001702
0.643287,0.647295,-0.001009
0.306613,0.885772,0.000274
0.729459,0.294589,-0.000483
0.290581,0.823647,-0.000965
0.631263,0.352705,0.000014
0.857715,0.054108,-0.000093
0.446894,0.246493,0.000069
0.831663,0.482966,0.001846
0.288577,0.837675,-0.001498
0.927856,0.066132,0.000190
0.376754,0.000000,-0.000594
0.308617,0.384770,-0.000703
0.040080,0.372745,0.000583
0.476954,0.424850,-0.000191
0.737475,0.549098,-0.000531
0.715431,0.424850,0.001392
0.639279,0.729459,-0.001567
0.719439,0.238477,-0.001045
0.779559,0.693387,0.000050
0.983968,0.863727,0.000410
0.803607,0.418838,0.001216
0.847695,0.891784,0.000146
0.523046,0.094188,-0.000605
0.354709,0.839679,0.001150
0.925852,0.847695,0.000543
0.737475,0.939880,0.000981
0.867735,0.308617,0.000121
0.759519,0.300601,-0.001370
0.619238,0.617234,-0.000745
0.124248,0.384770,0.001688
0.863727,0.164329,0.000274
0.102204,0.462926,0.000424
0.142285,0.685371,-0.000249
0.162325,0.845691,0.001050
0.092184,0.442886,0.001680
0.274549,0.529058,0.000790
0.040080,0.579158,0.000891
0.134269,0.723447,0.000065
0.657315,0.244489,0.000903
0.625251,0.975952,-0.000322
0.593186,0.623246,-0.001198
0.919840,0.741483,0.001766
0.380762,0.913828,-0.001628
0.014028,0.695391,0.001164
0.370741,0.466934,-0.000420
0.885772,0.456914,0.002048
0.144289,0.344689,0.001322
0.228457,0.633267,-0.000870
0.795591,0.779559,0.000128
0.769539,0.360721,-0.000882
0.288577,0.360721,-0.000751
0.166333,0.711423,-0.000264
0.132265,0.478958,-0.000578
0.689379,0.378758,0.000662
0.539078,0.655311,-0.000995
0.136273,0.372745,0.001289
0.364729,0.683367,-0.000550
0.951904,0.350701,-0.000065
0.505010,0.859719,0.000729
0.609218,0.094188,-0.000273
0.138277,0.362725,0.001734
0.591182,0.276553,-0.000137
0.450902,0.755511,-0.000126
0.957916,0.589178,-0.000533
0.036072,0.178357,0.003552
0.416834,0.799599,0.001435
0.643287,0.811623,0.000623
0.324649,0.513026,-0.001337
0.953908,0.527054,0.000467
0.164329,0.252505,0.000377
0.791583,0.873747,0.000909
0.210421,0.254509,0.001477
0.322645,0.466934,0.000864
0.040080,0.446894,-0.001826
0.725451,0.220441,0.000224
0.709419,0.949900,0.000997
0.496994,0.074148,-0.000675
0.573146,0.326653,-0.000825
0.194389,0.160321,0.001507
0.188377,0.669339,0.000428
0.955912,0.805611,-0.001994
0.923848,0.511022,0.001356
0.200401,0.382766,0.001558
0.196393,0.643287,0.000493
0.474950,0.585170,-0.000775
0.426854,0.196393,-0.000472
0.775551,0.284569,-0.001043
0.232465,0.583166,-0.000177
0.246493,0.350701,-0.000509
0.731463,0.478958,0.000296
0.605210,0.398798,-0.000867
0.386774,0.599198,-0.001660
0.739479,0.993988,-0.000691
0.278557,0.362725,-0.000363
0.997996,0.789579,0.000091
0.925852,0.957916,0.000316
0.432866,0.196393,-0.000664
0.266533,0.332665,-0.000378
0.939880,0.384770,0.001041
0.683367,0.130261,0.000276
0.388778,0.386774,-0.000454
0.781563,0.156313,0.001040
0.629259,0.767535,-0.000734
0.953908,0.330661,0.000731
0.557114,0.693387,-0.001275
0.791583,0.094188,0.000885
0.240481,0.525050,0.000695
0.777555,0.320641,-0.002167
0.543086,0.218437,-0.000815
0.238477,0.442886,-0.001092
0.723447,0.939880,0.000229
0.649299,0.831663,0.000340
0.358717,0.062124,0.001371
0.460922,0.505010,0.000946
0.663327,0.062124,-0.000100
0.829659,0.076152,-0.000392
0.511022,0.330661,-0.000233
0.218437,0.755511,-0.000964
0.609218,0.078156,0.000662
0.026052,0.781563,-0.000609
0.070140,0.490982,0.000072
0.699399,0.010020,-0.000981
0.967936,0.142285,-0.000515
0.987976,0.503006,-0.000343
0.234469,0.428858,-0.001460
0.428858,0.062124,0.001684
0.819639,0.052104,-0.000900
0.991984,0.613226,-0.000436
0.793587,0.296593,-0.001691
0.214429,0.428858,-0.000859
0.573146,0.348697,-0.000518
0.795591,0.813627,-0.000142
0.020040,0.122244,0.002312
0.917836,0.484970,0.000700
0.991984,0.713427,0.001735
0.262525,0.360721,-0.000036
0.484970,0.975952,0.001778
0.414830,0.827655,0.001284
0.106212,0.677355,-0.000792
0.314629,0.068136,0.000522
0.847695,0.547094,-0.000235
0.989980,0.535070,-0.000817
0.166333,0.076152,0.000859
0.507014,0.557114,0.000097
0.825651,0.094188,0.000547
0.330661,0.913828,-0.002416
0.372745,0.727455,-0.000563
0.240481,0.266533,0.001511
0.026052,0.394790,0.001245
0.342685,0.364729,-0.000413
0.735471,0.326653,0.000649
0.901804,0.268537,0.000770
0.482966,0.737475,0.001279
0.474950,0.360721,-0.000701
0.823647,0.827655,0.000513
0.807615,0.270541,-0.001489
0.068136,0.505010,-0.000108
0.110220,0.919840,0.000551
0.444890,0.571142,-0.000946
0.971944,0.901804,0.000629
0.228457,0.819639,-0.000287
0.953908,0.020040,-0.000132
0.581162,0.494990,0.000211
0.575150,0.000000,0.000421
0.947896,0.651303,0.000609
0.488978,0.136273,-0.000306
0.891784,0.392786,0.000781
0.655311,0.973948,-0.000100
0.094188,0.875752,0.001680
0.923848,0.360721,0.000667
0.364729,0.040080,0.000741
0.991984,0.639279,0.000589
0.492986,0.096192,0.000270
0.717435,0.795591,0.000280
0.086172,0.807615,0.000695
0.731463,0.156313,0.000315
0.200401,0.236473,0.000353
0.677355,0.635271,-0.000253
0.643287,0.348697,-0.001311
0.060120,0.569138,0.000616
0.875752,0.096192,-0.001542
0.683367,0.691383,-0.000667
0.268537,0.048096,-0.000571
0.178357,0.541082,0.001306
0.412826,0.462926,-0.001536
0.675351,0.472946,0.001175
0.981964,0.583166,-0.000059
0.703407,0.072144,0.000130
0.308617,0.651303,-0.001219
0.799599,0.276553,0.000286
0.875752,0.547094,0.001073
0.490982,0.969940,0.001304
0.925852,0.759519,0.000526
0.416834,0.925852,-0.000428
0.759519,0.476954,0.000171
0.388778,0.072144,0.000296
0.651303,0.855711,0.000593
0.605210,0.442886,0.001005
0.080160,0.903808,0.000365
0.839679,0.306613,0.000018
0.759519,0.593186,-0.000728
0.430862,0.983968,0.000806
0.258517,0.386774,-0.000458
0.917836,0.316633,0.000105
0.420842,0.855711,0.002049
0.012024,0.370741,0.000437
0.677355,0.953908,-0.000035
0.046092,0.128257,0.002325
0.286573,0.140281,0.001493
0.030060,0.058116,0.002024
0.703407,0.332665,-0.000645
0.180361,0.220441,0.000819
0.735471,0.917836,-0.000562
0.793587,0.997996,-0.000949
0.821643,0.178357,0.002337
0.326653,0.981964,-0.000510
0.625251,0.609218,-0.001417
0.084168,0.050100,0.000894
0.416834,0.004008,-0.000432
0.084168,0.621242,0.000212
0.975952,0.627255,0.000977
0.793587,0.637275,-0.000698
0.300601,0.034068,-0.000558
0.925852,0.076152,-0.000122
0.108216,0.128257,0.000476
0.072144,0.394790,0.000041
0.112224,0.637275,-0.000395
0.388778,0.617234,-0.000917
0.915832,0.953908,0.000809
0.108216,0.178357,0.000419
0.324649,0.841683,-0.000573
0.523046,0.288577,-0.000556
0.539078,0.142285,-0.000743
0.589178,0.280561,-0.000275
0.573146,0.917836,0.000710
0.839679,0.667335,-0.001177
0.280561,0.194389,0.000925
0.332665,0.298597,-0.000882
0.330661,0.539078,-0.001367
0.509018,0.458918,-0.000316
0.803607,0.358717,0.001163
0.977956,0.020040,-0.000666
0.340681,0.296593,-0.000947
0.681363,0.653307,-0.000477
0.629259,0.068136,0.000734
0.955912,0.655311,0.000544
0.981964,0.482966,-0.000489
0.739479,0.833667,0.001185
0.330661,0.683367,-0.000704
0.398798,0.062124,0.000405
0.406814,0.386774,-0.001367
0.336673,0.595190,-0.001890
0.851703,0.018036,-0.001742
0.959920,0.601202,-0.000621
0.553106,0.250501,-0.000054
0.505010,0.338677,-0.000513
0.803607,0.350701,0.000984
0.316633,0.436874,0.000823
0.132265,0.232465,0.000428
0.613226,0.304609,-0.000869
0.975952,0.903808,0.000093
0.665331,0.306613,0.000096
0.545090,0.228457,0.000352
0.250501,0.757515,-0.001125
0.314629,0.078156,-0.001424
0.488978,0.647295,-0.002672
0.613226,0.136273,-0.001403
0.563126,0.759519,-0.000661
0.985972,0.605210,-0.000881
0.855711,0.579158,-0.001164
0.170341,0.348697,-0.000335
0.671343,0.919840,-0.000448
0.366733,0.444890,-0.000681
0.304609,0.989980,-0.001370
0.893788,0.026052,-0.000251
0.855711,0.368737,0.000066
0.577154,0.953908,0.001213
0.931864,0.000000,0.001161
0.230461,0.809619,-0.000215
0.939880,0.501002,0.000913
0.869739,0.120240,-0.001704
0.298597,0.270541,-0.000959
0.058116,0.565130,-0.000541
0.000000,0.066132,0.001106
0.306613,0.585170,-0.000357
0.314629,0.328657,-0.001175
0.300601,0.661323,-0.000331
1.000000,0.216433,0.002512
0.865731,0.144289,0.000305
0.615230,0.284569,0.000830
0.549098,0.298597,-0.000516
0.032064,0.815631,0.001663
0.326653,0.276553,-0.000181
0.901804,0.032064,-0.000247
0.358717,0.272545,0.000237
0.346693,0.563126,-0.000890
0.879760,0.693387,0.001045
0.739479,0.162325,-0.000361
0.230461,0.074148,-0.001039
0.681363,0.867735,-0.001080
0.062124,0.366733,0.000643
0.378758,0.278557,0.000112
0.202405,0.905812,-0.001375
0.452906,0.044088,0.001517
0.348697,0.513026,-0.001910
0.601202,0.450902,0.000820
0.879760,0.148297,-0.000343
0.452906,0.476954,0.000976
0.264529,0.154309,0.001833
0.683367,0.084168,-0.000348
0.739479,0.350701,0.000066
0.322645,0.533066,-0.000962
0.835671,0.106212,0.000466
0.494990,0.420842,-0.000654
0.106212,0.424850,0.001203
0.633267,0.470942,0.001122
0.186373,0.462926,-0.000797
0.306613,0.128257,0.000961
0.020040,0.434870,-0.000658
0.973948,0.216433,0.003616
0.384770,0.965932,-0.000368
0.533066,0.633267,-0.001453
0.168337,0.945892,0.000454
0.276553,0.112224,-0.000266
0.124248,0.390782,0.001289
0.072144,0.785571,-0.000139
0.394790,0.330661,-0.000077
0.557114,0.088176,0.000087
0.619238,0.382766,0.000534
0.168337,0.529058,0.001714
0.915832,0.511022,0.000941
0.438878,0.482966,0.000698
0.835671,0.244489,0.000969
0.689379,0.252505,-0.000303
0.773547,0.316633,-0.003014
0.462926,0.957916,0.002019
0.192385,0.492986,-0.000242
0.777555,0.378758,-0.000460
0.821643,0.849699,-0.000054
0.671343,0.811623,0.000368
0.969940,0.464930,-0.000542
0.637275,0.108216,-0.000591
0.172345,0.883768,-0.000087
0.262525,0.685371,-0.000416
0.573146,0.951904,0.001034
0.959920,0.168337,-0.000061
0.711423,0.781563,0.000625
0.100200,0.352705,0.000832
0.164329,0.527054,0.001217
0.781563,0.000000,-0.000949
0.142285,0.072144,0.001654
0.148297,0.925852,0.000309
0.737475,0.911824,-0.001031
0.539078,0.116232,-0.000384
0.513026,0.729459,-0.000548
0.362725,0.633267,-0.000007
0.571142,0.609218,-0.000389
0.368737,0.977956,-0.001122
0.653307,0.010020,0.001360
0.627255,0.350701,-0.000123
0.498998,0.084168,0.000147
0.006012,0.492986,-0.000031
0.230461,0.252505,0.001276
0.859719,0.605210,-0.000954
0.611222,0.270541,0.000291
0.336673,0.188377,-0.000237
0.697395,0.727455,-0.001164
0.697395,0.797595,0.000080
0.368737,0.565130,-0.000911
0.284569,0.108216,-0.000188
0.134269,0.937876,-0.000452
0.741483,0.390782,0.001061
0.026052,0.845691,0.002118
0.214429,0.310621,-0.001412
0.456914,0.390782,-0.000353
0.404810,0.080160,0.000365
0.611222,0.074148,0.001355
0.749499,0.797595,0.000207
0.046092,0.180361,0.002365
0.833667,0.006012,-0.001732
0.965932,0.647295,0.000981
0.941884,0.703407,0.001351
0.144289,0.356713,0.000692
0.378758,0.963928,-0.000761
0.741483,0.545090,0.000365
0.961924,0.114228,-0.000441
0.356713,0.106212,0.001109
0.392786,0.845691,0.000779
0.661323,0.569138,-0.000207
0.326653,0.460922,0.000168
0.410822,0.226453,-0.000047
0.687375,0.134269,0.000856
0.260521,0.002004,-0.000704
0.318637,0.697395,-0.000917
0.352705,0.414830,0.002279
0.060120,0.565130,-0.000596
0.759519,0.378758,0.000876
0.408818,0.294589,-0.000668
0.523046,0.310621,-0.001269
0.575150,0.322645,-0.000214
0.006012,0.903808,-0.000486
0.833667,0.613226,-0.002157
0.052104,0.805611,0.001352
0.869739,0.643287,-0.001469
0.092184,0.795591,0.000117
0.010020,0.096192,-0.000449
0.573146,0.342685,-0.000006
0.096192,0.819639,0.000110
0.022044,0.136273,0.001494
0.961924,0.905812,-0.000206
0.885772,0.060120,-0.000345
0.617234,0.306613,-0.001136
0.152305,0.917836,0.001063
0.492986,0.793587,-0.000038
0.899800,0.717435,0.000719
0.945892,0.428858,-0.000698
0.174349,0.134269,0.000851
0.805611,0.146293,0.001100
0.486974,0.761523,0.000134
0.911824,0.190381,0.000291
0.018036,0.360721,0.000600
0.470942,0.837675,0.000436
0.705411,0.755511,-0.001382
0.116232,0.068136,0.001197
0.589178,0.190381,-0.000629
0.901804,0.338677,0.000676
0.517034,0.242485,-0.001235
0.034068,0.559118,-0.000957
0.468938,0.593186,-0.001412
0.525050,0.905812,-0.000269
0.156313,0.841683,0.001032
0.559118,0.378758,-0.000849
0.589178,0.925852,-0.000810
0.601202,0.460922,0.000361
0.196393,0.494990,-0.000245
0.805611,0.975952,-0.001261
0.715431,0.086172,0.000926
0.635271,0.835671,0.001930
0.799599,0.330661,-0.001109
0.496994,0.863727,0.000184
0.607214,0.901804,0.000105
0.539078,0.434870,0.000517
0.258517,0.527054,0.000121
0.713427,0.078156,0.000252
0.915832,0.829659,-0.001068
0.072144,0.084168,0.000536
0.515030,0.246493,-0.000788
0.118236,0.154309,0.001087
0.785571,0.380762,-0.000878
0.731463,0.044088,0.000740
0.689379,0.885772,-0.001231
0.014028,0.072144,0.001400
0.288577,0.565130,-0.000126
0.863727,0.440882,0.001439
0.042084,0.354709,0.000418
0.973948,0.615230,0.000596
1.000000,0.609218,-0.000359
0.651303,0.350701,-0.000192
0.533066,0.719439,-0.001976
0.747495,0.711423,-0.000979
0.478958,0.535070,-0.000041
0.016032,0.158317,0.002787
0.895792,0.563126,0.000021
0.873747,0.651303,-0.000792
0.486974,0.438878,0.000663
0.757515,0.020040,0.000263
0.204409,0.601202,0.001815
0.188377,0.967936,-0.000088
0.895792,0.200401,0.001312
0.282565,0.887776,-0.000356
0.418838,0.236473,-0.001097
0.356713,0.933868,-0.001021
0.509018,0.154309,-0.000399
0.310621,0.366733,0.000426
0.464930,0.671343,-0.000081
0.322645,0.208417,0.001510
0.621242,0.084168,0.000961
0.444890,0.945892,-0.000215
0.260521,0.605210,-0.000078
0.831663,0.849699,-0.000323
0.889780,0.555110,0.000586
0.132265,0.897796,0.001777
0.673347,0.819639,0.000447
0.256513,0.597194,0.000119
0.775551,0.869739,0.000204
0.424850,0.138277,0.001296
0.026052,0.545090,-0.000315
0.693387,0.338677,0.000286
0.763527,0.312625,-0.000761
0.452906,0.000000,0.000274
0.186373,0.787575,0.000636
0.056112,0.775551,0.000173
0.741483,0.058116,0.000888
0.250501,0.110220,0.000611
0.438878,0.350701,0.000341
0.785571,0.362725,-0.000007
0.310621,0.380762,-0.000794
0.118236,0.955912,0.000183
0.983968,0.042084,0.000910
0.492986,0.601202,-0.000894
0.106212,0.879760,0.000429
0.567134,0.775551,0.000158
0.220441,0.561122,0.000885
0.392786,0.587174,-0.000613
0.082164,0.200401,0.000607
0.829659,0.288577,-0.000342
0.264529,0.565130,0.000232
0.577154,0.809619,0.000729
0.701403,0.282565,-0.000574
0.723447,0.496994,-0.000357
0.026052,0.240481,0.002033
0.196393,0.166333,0.001352
0.893788,0.150301,-0.000700
0.615230,0.060120,0.000806
0.979960,0.947896,-0.000914
0.531062,0.635271,-0.001363
0.194389,0.791583,0.000152
0.797595,0.444890,0.000826
0.621242,0.248497,-0.001150
0.054108,0.881764,0.000304
0.789579,0.204409,0.001920
0.426854,0.030060,0.001341
0.084168,0.216433,0.002477
0.150301,0.735471,-0.001185
0.434870,0.711423,-0.000209
0.062124,0.547094,-0.002017
0.821643,0.505010,0.000789
0.643287,0.196393,0.000709
0.424850,0.388778,-0.000973
0.342685,0.000000,-0.000769
0.841683,0.120240,0.000848
0.390782,0.767535,0.000740
0.130261,0.503006,0.001176
0.539078,0.765531,-0.000983
0.561122,0.478958,-0.001250
0.765531,0.240481,-0.000081
0.949900,0.294589,0.001267
0.420842,0.490982,-0.000504
0.264529,0.955912,0.000583
0.056112,0.124248,0.002369
0.344689,0.787575,0.000556
0.110220,0.659319,-0.000721
0.803607,0.673347,0.001556
0.595190,0.713427,-0.000629
0.114228,0.995992,-0.000365
0.897796,0.521042,0.000978
0.356713,0.464930,-0.001307
0.490982,0.276553,-0.001756
0.354709,0.791583,0.001311
0.446894,0.575150,-0.001163
0.563126,0.394790,0.000387
0.068136,0.569138,0.000361
0.537074,0.757515,-0.001496
0.132265,0.324649,0.000705
0.282565,0.334669,-0.000913
0.468938,0.699399,0.000289
0.767535,0.965932,-0.000102
0.218437,0.607214,0.001099
0.607214,0.509018,0.002018
0.100200,0.743487,-0.000773
0.593186,0.509018,0.001030
0.979960,0.396794,0.000121
0.717435,0.288577,0.000374
0.376754,0.264529,-0.000838
0.905812,0.945892,0.001013
0.567134,0.591182,0.000096
0.214429,0.655311,-0.000834
0.224449,0.545090,-0.000059
0.192385,0.793587,0.000597
0.567134,0.525050,-0.001305
0.747495,0.587174,-0.000738
0.741483,0.715431,-0.001378
0.138277,0.789579,-0.000691
0.513026,0.402806,-0.000057
0.276553,0.841683,-0.000646
0.270541,0.869739,-0.001107
0.240481,0.589178,-0.000294
0.901804,0.559118,0.000369
0.044088,0.142285,0.002418
0.260521,0.480962,0.000207
0.577154,0.845691,0.000116
0.036072,0.595190,0.001334
0.555110,0.074148,-0.000678
0.454910,0.565130,-0.001068
0.424850,0.981964,0.000367
0.949900,0.927856,0.000130
0.174349,0.474950,0.000406
0.813627,0.919840,-0.001707
0.507014,0.793587,-0.000093
0.631263,0.192385,0.000454
0.571142,0.581162,0.000191
0.741483,0.124248,-0.000722
0.637275,0.637275,-0.001037
0.368737,0.006012,-0.000822
0.442886,0.987976,0.001729
0.525050,0.507014,-0.001344
0.124248,0.472946,-0.000278
0.503006,0.234469,-0.002313
0.008016,0.783567,0.000616
0.054108,0.290581,-0.000317
0.074148,0.617234,-0.000197
0.184369,0.068136,0.000570
0.206413,0.533066,0.000315
0.951904,0.555110,0.000043
0.927856,0.831663,-0.000525
0.725451,0.226453,0.000132
0.601202,0.058116,0.001076
0.833667,0.989980,-0.002728
0.591182,0.823647,0.000387
0.128257,0.364729,0.001001
0.647295,0.002004,0.000359
0.206413,0.567134,0.001012
0.551102,0.334669,-0.000238
0.901804,0.773547,0.001246
0.056112,0.885772,0.000402
0.436874,0.945892,-0.000436
0.891784,0.695391,0.000188
0.096192,0.937876,-0.000019
0.521042,0.238477,-0.000992
0.190381,0.961924,-0.000253
0.422846,0.216433,-0.000072
0.715431,0.292585,-0.000196
0.218437,0.006012,-0.000556
0.072144,0.649299,-0.000340
0.202405,0.919840,-0.001382
0.993988,0.655311,0.000019
0.959920,0.338677,0.001050
0.392786,0.947896,0.000035
0.943888,0.889780,-0.000519
0.829659,0.607214,-0.001922
0.278557,0.186373,0.000604
0.565130,0.903808,-0.000338
0.779559,0.985972,-0.000006
0.242485,0.823647,-0.000368
0.685371,0.665331,-0.000959
0.484970,0.597194,-0.000805
0.454910,0.008016,0.000287
0.068136,0.426854,0.000434
0.274549,0.715431,-0.000258
0.925852,0.735471,0.002229
0.112224,0.212425,0.001121
0.579158,0.096192,0.000421
0.583166,0.625251,-0.001332
0.058116,0.342685,0.001665
0.114228,0.755511,-0.001411
0.154309,0.272545,0.000657
0.747495,0.068136,0.000186
0.691383,0.028056,-0.000417
0.917836,0.741483,0.002173
0.701403,0.070140,-0.000409
0.731463,0.384770,0.001322
0.260521,0.603206,-0.000041
0.555110,0.865731,-0.000428
0.462926,0.539078,-0.000224
0.390782,0.955912,-0.000067
0.547094,0.683367,-0.001168
0.841683,0.324649,0.000663
0.883768,0.376754,0.000913
0.436874,0.903808,0.000327
0.344689,0.142285,-0.001662
0.380762,0.897796,-0.001581
0.555110,0.002004,0.000171
0.753507,0.685371,-0.001201
0.446894,0.559118,-0.000911
