ply
format ascii 1.0
element vertex 1741
property float x
property float y
property float z
end_header
0.266533 0.306613 0.000172
0.607214 0.072144 -0.000901
0.875752 0.382766 0.000773
0.324649 0.899800 0.000316
0.360721 0.188377 -0.000882
0.450902 0.352705 -0.000974
0.032064 0.995992 0.000758
0.146293 0.252505 -0.001502
0.655311 0.709419 -0.000426
0.923848 0.735471 0.000982
0.300601 0.030060 0.000322
0.416834 0.252505 -0.002313
0.927856 0.072144 -0.001788
0.094188 0.813627 0.000211
0.402806 0.843687 -0.000177
0.168337 0.232465 0.000625
0.034068 0.050100 -0.000671
0.509018 0.064128 -0.000187
0.525050 0.394790 -0.000664
0.372745 0.484970 -0.000769
0.611222 0.306613 -0.000723
0.903808 0.675351 0.000288
0.617234 0.643287 -0.001068
0.342685 0.200401 -0.000201
0.815631 0.629259 0.000753
0.008016 0.619238 -0.000230
0.621242 0.925852 0.001128
0.743487 0.210421 -0.000408
0.218437 0.276553 0.001304
0.531062 0.681363 -0.000191
0.244489 0.935872 -0.000148
0.631263 0.649299 -0.000048
0.092184 0.601202 -0.000419
0.559118 0.561122 0.000952
0.913828 0.476954 0.000182
0.619238 0.226453 0.000242
0.941884 0.220441 0.000884
0.396794 0.438878 -0.000817
0.993988 0.170341 0.000124
0.448898 0.983968 0.001200
0.873747 0.258517 -0.000266
0.903808 0.496994 0.000514
0.803607 0.410822 -0.000611
0.639279 0.911824 0.001015
0.941884 0.194389 -0.000797
0.653307 0.841683 -0.000131
0.312625 0.164329 0.000544
0.945892 0.242485 -0.000352
0.709419 0.264529 0.001605
0.901804 0.717435 0.000116
0.519038 0.364729 -0.000582
0.751503 0.823647 0.002341
0.663327 0.242485 -0.000115
0.685371 0.122244 -0.000710
0.460922 0.537074 0.000142
0.713427 0.989980 -0.001581
0.224449 0.136273 0.000667
0.152305 0.665331 -0.000745
0.799599 0.519038 0.000563
0.819639 0.112224 -0.000877
0.202405 0.300601 0.002210
0.885772 0.036072 0.000657
0.494990 0.659319 -0.000925
0.721443 0.747495 -0.001266
0.230461 0.927856 0.001197
0.284569 0.961924 -0.000504
0.176353 0.833667 -0.002482
0.925852 0.997996 -0.000535
0.837675 0.046092 -0.001545
0.356713 0.446894 -0.000844
0.066132 0.108216 -0.000565
0.845691 0.805611 0.001820
0.440882 0.779559 -0.001591
0.288577 0.210421 -0.000128
0.809619 0.214429 0.000429
0.567134 0.713427 -0.000163
0.480962 0.569138 0.000709
0.645291 0.925852 0.003188
0.595190 0.739479 0.000319
0.891784 0.144289 -0.000313
0.825651 0.024048 0.000277
0.210421 0.575150 0.001293
0.603206 0.470942 0.000040
0.098196 0.096192 -0.000653
0.703407 0.450902 -0.000638
0.376754 0.875752 0.000203
0.813627 0.010020 0.000055
0.290581 0.685371 -0.000771
0.871743 0.965932 -0.000043
0.428858 0.615230 0.001001
0.460922 0.883768 -0.001399
0.186373 0.727455 0.000300
0.094188 0.332665 -0.000070
0.875752 0.997996 0.001169
0.533066 0.785571 0.001206
0.665331 0.607214 0.001167
0.949900 0.460922 0.000466
0.931864 0.535070 0.001523
0.947896 0.907816 0.000654
0.595190 0.785571 0.000118
0.276553 0.875752 0.000700
0.913828 0.709419 -0.000237
0.813627 0.106212 -0.001324
0.679359 0.511022 -0.000547
0.134269 0.452906 -0.000470
0.146293 0.302605 -0.000681
0.709419 0.953908 0.000685
0.434870 0.236473 -0.000910
0.194389 0.308617 0.001379
0.348697 0.098196 -0.001715
0.801603 0.733467 0.000540
0.773547 1.000000 -0.000317
0.885772 0.913828 0.000402
0.811623 0.030060 -0.001261
0.204409 0.314629 0.000225
0.492986 0.354709 0.000270
0.835671 0.308617 -0.000672
0.793587 0.623246 0.000011
0.619238 0.869739 -0.002179
0.132265 0.697395 0.000587
0.757515 0.623246 0.002427
0.733467 0.370741 0.000883
0.529058 0.046092 -0.000683
0.559118 0.056112 0.000807
0.669339 0.200401 0.000285
0.611222 0.637275 -0.000038
0.230461 0.533066 -0.000512
0.428858 0.907816 0.000353
0.334669 0.380762 0.001602
0.745491 0.607214 0.001550
0.230461 0.941884 -0.001337
0.358717 0.082164 -0.000486
0.549098 0.601202 0.000520
0.402806 0.052104 0.001293
0.246493 0.192385 -0.000506
0.064128 0.386774 0.000044
0.737475 0.382766 0.000115
0.935872 0.663327 -0.000934
0.689379 0.250501 0.000183
0.086172 0.501002 -0.000740
0.236473 0.466934 0.000759
0.122244 0.959920 0.000718
0.777555 0.843687 -0.000518
0.248497 0.182365 0.000072
0.400802 0.292585 -0.002016
0.809619 0.340681 0.001891
0.368737 0.114228 0.000656
0.456914 0.691383 -0.001661
0.803607 0.567134 -0.000527
0.242485 0.845691 0.000185
0.176353 0.026052 -0.000355
0.963928 0.675351 -0.000451
0.935872 0.511022 -0.000920
0.683367 0.206413 -0.000571
0.721443 0.162325 0.001982
0.426854 0.468938 0.001007
0.414830 0.565130 -0.000917
0.180361 0.094188 -0.000978
0.745491 0.390782 0.000036
0.753507 0.895792 0.000479
0.118236 0.026052 -0.001335
0.907816 0.074148 -0.003172
0.020040 0.645291 -0.000909
0.422846 0.877756 -0.000081
0.132265 0.585170 0.000144
0.605210 0.741483 0.000691
0.008016 0.274549 -0.000850
0.803607 0.821643 0.000182
0.793587 0.214429 -0.001408
0.476954 0.104208 0.000892
0.318637 0.226453 -0.000764
0.697395 0.008016 0.000646
0.050100 0.062124 -0.000108
0.825651 0.629259 0.001490
0.060120 0.056112 0.001154
0.222445 0.044088 -0.000098
0.599198 0.116232 0.000348
0.817635 0.314629 -0.000350
0.941884 0.298597 -0.001242
0.659319 0.927856 0.002643
0.557114 0.813627 -0.000312
0.975952 0.178357 0.000512
0.320641 0.342685 0.001341
0.759519 0.046092 -0.000312
0.567134 0.601202 -0.000014
0.877756 0.088176 -0.000095
0.326653 0.695391 0.000914
0.006012 0.420842 -0.001448
0.665331 0.539078 -0.000421
0.957916 0.272545 0.000066
0.200401 0.943888 -0.000444
0.793587 0.462926 0.000193
0.893788 0.376754 0.000458
0.737475 0.655311 0.001503
0.024048 0.476954 0.000521
1.000000 0.745491 0.000585
0.164329 0.116232 -0.001058
0.050100 0.739479 0.001043
0.310621 0.190381 -0.000121
0.292585 0.444890 0.000592
0.525050 0.617234 -0.001680
0.939880 0.344689 -0.000695
0.200401 0.721443 -0.000015
0.915832 0.128257 0.001300
0.935872 0.775551 -0.000521
0.609218 0.767535 0.001130
0.298597 0.641283 -0.000337
0.505010 0.228457 0.000107
0.228457 0.983968 -0.000152
0.400802 0.210421 -0.000283
0.490982 0.118236 0.001878
0.535070 0.442886 0.001019
0.418838 0.016032 0.000558
0.789579 0.907816 -0.000704
0.172345 0.525050 -0.000374
0.256513 0.236473 -0.000816
0.444890 0.647295 -0.000187
0.446894 0.955912 -0.000267
0.292585 0.272545 0.000322
0.711423 0.408818 -0.000537
0.813627 0.501002 0.001996
0.899800 0.903808 0.000528
0.464930 0.967936 0.000556
0.312625 0.569138 0.000124
0.176353 0.545090 -0.000270
0.797595 0.937876 0.001167
0.306613 0.735471 0.000859
0.795591 0.196393 0.000799
0.997996 0.589178 -0.000703
0.212425 0.843687 -0.000528
0.521042 0.464930 0.000983
0.671343 0.194389 0.000694
0.705411 0.961924 -0.000364
0.002004 0.501002 0.000951
0.829659 0.897796 0.000668
0.589178 0.188377 -0.000773
0.675351 0.801603 0.000376
0.769539 0.917836 0.000303
0.434870 0.474950 0.000733
0.422846 0.224449 0.000331
0.224449 0.537074 -0.000139
0.993988 0.410822 -0.001866
0.859719 0.761523 0.000353
0.711423 0.056112 -0.000599
0.627255 0.877756 -0.000688
0.088176 0.901804 0.000109
0.983968 0.114228 -0.000777
0.655311 0.529058 0.000247
0.515030 0.058116 0.000028
0.466934 0.300601 0.001033
0.494990 0.701403 -0.000219
0.831663 0.531062 0.000366
0.975952 0.034068 0.000472
0.312625 0.545090 0.000189
0.372745 0.094188 -0.001542
0.212425 0.194389 0.000037
0.432866 0.689379 -0.000545
0.042084 0.777555 0.001662
0.701403 0.631263 0.000890
0.971944 0.819639 -0.000566
0.813627 0.613226 0.001392
0.889780 0.034068 0.000048
0.392786 0.096192 -0.000153
0.364729 0.462926 0.000454
0.346693 0.623246 -0.001062
0.949900 0.843687 0.001403
0.268537 0.480962 -0.001148
0.006012 0.835671 0.001440
0.198397 0.883768 0.001561
0.973948 0.304609 0.000092
0.641283 0.831663 0.001041
0.797595 0.873747 -0.000126
0.140281 0.839679 -0.000957
0.192385 0.410822 -0.001436
0.655311 0.681363 0.001267
0.252505 1.000000 0.000266
0.875752 0.575150 0.000264
0.224449 0.242485 -0.000799
0.366733 0.286573 -0.001038
0.715431 0.448898 0.000278
0.140281 0.685371 0.000613
0.122244 0.983968 0.001345
0.747495 0.106212 0.000219
0.785571 0.258517 0.000267
0.298597 0.575150 0.000176
0.905812 0.042084 -0.000772
0.082164 0.278557 -0.000478
0.927856 0.092184 -0.001722
0.963928 0.066132 -0.000799
0.408818 0.498998 -0.000209
0.561122 0.741483 0.000694
0.911824 0.879760 0.002878
0.911824 0.673347 -0.000033
0.801603 0.208417 -0.000155
0.611222 0.238477 0.001655
0.593186 0.887776 -0.002057
0.529058 0.312625 -0.000497
0.919840 0.831663 0.000940
0.058116 0.092184 -0.000223
0.100200 0.458918 -0.000460
0.587174 0.332665 -0.001597
0.424850 0.637275 0.000774
0.340681 0.146293 0.000218
0.749499 0.679359 -0.000778
0.126253 0.148297 -0.000310
0.176353 0.384770 0.000276
0.440882 0.204409 -0.000448
0.490982 0.476954 -0.000361
0.553106 0.773547 0.001173
0.963928 0.647295 0.000777
0.885772 0.454910 0.001540
0.677355 0.799599 0.000201
0.434870 0.398798 -0.001063
0.893788 0.444890 -0.000163
0.567134 0.623246 0.001922
0.072144 0.687375 -0.000463
0.366733 0.605210 0.000195
0.617234 0.108216 0.000167
0.138277 0.226453 -0.000541
0.823647 0.559118 0.000200
0.324649 0.220441 -0.001475
0.096192 0.256513 -0.001240
0.032064 0.665331 0.000028
0.006012 0.529058 -0.001582
0.881764 0.464930 0.001620
0.723447 0.316633 -0.000398
0.523046 0.258517 -0.001259
0.837675 0.651303 0.000901
0.911824 0.108216 -0.000513
0.771543 0.180361 0.000598
0.086172 0.767535 0.000978
0.496994 0.182365 0.001160
0.865731 0.262525 0.001038
0.551102 0.865731 0.001096
0.478958 0.803607 -0.000730
0.276553 0.388778 -0.000875
0.853707 0.082164 -0.001550
0.166333 0.623246 0.000437
0.210421 0.264529 0.000823
0.238477 0.819639 -0.000983
0.535070 0.080160 -0.000285
0.282565 0.412826 0.001064
0.779559 0.374749 0.000918
0.450902 0.440882 0.002658
0.897796 0.609218 -0.000446
0.795591 0.977956 -0.000002
0.474950 0.116232 0.001072
0.805611 0.585170 -0.000472
0.068136 0.749499 0.000545
0.817635 0.452906 -0.001439
0.949900 0.567134 0.000045
0.537074 0.641283 0.000317
0.190381 0.386774 -0.001297
0.340681 0.462926 -0.000022
0.234469 0.929860 0.000902
0.583166 0.925852 0.000182
0.535070 0.879760 -0.000557
0.150301 0.925852 -0.000355
1.000000 0.304609 0.000044
0.384770 0.775551 -0.002882
0.336673 0.064128 -0.000052
0.104208 0.212425 0.000145
0.759519 0.444890 0.000937
0.989980 0.561122 -0.000463
0.729459 0.368737 0.000823
0.094188 0.505010 0.000140
0.659319 0.328657 0.001219
0.701403 0.663327 -0.000249
0.817635 0.965932 0.000337
0.416834 0.753507 -0.000601
0.008016 0.891784 0.002342
0.248497 0.927856 -0.000365
0.673347 0.280561 -0.000125
0.072144 0.250501 -0.000436
0.647295 0.621242 -0.000063
0.034068 0.354709 0.000399
0.593186 0.527054 0.000342
0.569138 0.733467 -0.000403
0.729459 0.378758 0.000516
0.070140 0.380762 -0.001178
0.160321 0.881764 0.000142
0.302605 0.791583 -0.001175
0.771543 0.030060 0.000184
0.983968 0.503006 0.000775
0.460922 0.983968 0.000231
0.326653 0.290581 -0.001179
0.366733 0.134269 -0.000669
0.569138 0.240481 -0.000213
0.737475 0.266533 0.001057
0.889780 0.765531 0.000170
0.000000 0.623246 0.000438
0.350701 0.965932 -0.000748
1.000000 0.791583 0.000233
0.390782 0.138277 -0.001510
0.094188 0.356713 -0.002124
0.845691 0.711423 0.001305
0.951904 0.376754 0.000528
0.815631 0.158317 -0.000692
0.422846 0.719439 0.000063
0.997996 0.597194 -0.001160
0.593186 0.621242 0.000570
0.989980 0.266533 0.000639
0.731463 0.294589 0.000868
1.000000 0.563126 0.000028
0.617234 0.629259 0.000198
0.252505 0.480962 0.000121
0.388778 0.709419 0.000728
0.058116 0.144289 -0.000663
0.006012 0.298597 0.000609
0.048096 0.176353 0.001377
0.002004 0.745491 0.001717
0.959920 0.468938 0.000279
0.961924 0.535070 -0.000313
0.390782 0.509018 -0.000294
0.753507 0.653307 0.000202
0.316633 0.002004 0.000751
0.322645 0.168337 0.000476
0.841683 0.615230 0.000584
0.484970 0.318637 0.002076
0.539078 0.975952 -0.000853
0.651303 0.673347 0.000293
0.729459 0.951904 0.000998
0.394790 0.903808 0.000109
0.026052 0.751503 0.002277
0.671343 0.134269 0.001691
0.466934 0.771543 0.000612
0.575150 0.675351 -0.001353
0.697395 0.513026 -0.000742
0.811623 0.126253 -0.000220
0.651303 0.933868 0.001922
0.751503 0.498998 -0.000016
0.438878 0.320641 -0.001211
0.244489 0.701403 -0.002581
0.501002 0.242485 -0.000124
0.322645 0.695391 0.001112
0.046092 0.172345 0.001236
0.130261 0.266533 -0.002685
0.667335 0.030060 -0.000866
0.943888 0.398798 0.000087
0.388778 0.482966 -0.000274
0.122244 0.234469 -0.002807
0.026052 0.050100 -0.000445
0.244489 0.853707 0.000458
0.871743 0.434870 0.001407
0.034068 0.827655 0.000855
0.733467 0.266533 0.001343
0.889780 0.771543 0.001052
0.086172 0.062124 0.001113
0.683367 0.977956 0.000371
0.126253 0.422846 -0.000465
0.795591 0.599198 0.001376
0.048096 0.747495 0.001546
0.915832 0.989980 -0.000221
0.945892 0.136273 -0.002311
0.681363 0.092184 -0.000550
0.480962 0.244489 0.000454
0.432866 0.815631 0.000743
0.366733 0.432866 -0.001244
0.256513 0.478958 0.000063
0.913828 0.202405 0.001019
0.755511 0.126253 0.000933
0.388778 0.969940 0.000174
0.316633 0.845691 0.002913
0.621242 0.575150 0.001237
0.827655 0.769539 0.000139
0.855711 0.687375 0.000457
0.436874 0.847695 0.000385
0.048096 0.739479 0.001710
0.671343 0.256513 -0.001342
0.242485 0.206413 0.000042
0.685371 0.755511 0.000908
0.961924 0.615230 0.001004
0.182365 0.466934 -0.000043
0.923848 0.641283 -0.000855
0.849699 0.354709 0.000957
0.733467 0.232465 -0.000355
0.420842 0.951904 -0.000211
0.250501 0.701403 -0.001340
0.292585 0.148297 -0.000546
0.312625 0.134269 0.001852
0.567134 0.214429 -0.001706
0.248497 0.222445 0.000300
0.765531 0.859719 -0.000430
0.537074 0.763527 -0.000153
0.126253 0.925852 -0.000536
0.613226 0.827655 0.000740
0.180361 0.112224 -0.001558
0.342685 0.234469 -0.000983
0.162325 0.811623 -0.001256
0.891784 0.076152 -0.000733
0.224449 0.663327 -0.001070
0.739479 0.809619 0.001379
0.266533 0.881764 0.000399
0.396794 0.899800 -0.000413
0.641283 0.450902 -0.001294
0.515030 0.384770 -0.000964
0.196393 0.593186 0.000276
0.238477 0.955912 -0.001608
0.531062 0.480962 -0.000587
0.310621 0.839679 0.002472
0.533066 0.597194 0.002257
0.200401 0.368737 0.000830
0.306613 0.559118 0.000766
0.422846 0.150301 -0.002322
0.879760 0.987976 0.001384
0.733467 0.827655 0.000745
0.020040 0.817635 0.002687
0.723447 0.220441 -0.000269
0.180361 0.635271 -0.000813
0.496994 0.719439 0.000003
0.018036 0.478958 0.001559
0.597194 0.933868 0.000688
0.460922 0.987976 0.001030
0.995992 0.244489 -0.000188
0.110220 0.296593 -0.000898
0.256513 0.274549 -0.001047
0.809619 0.959920 0.000720
0.106212 0.791583 0.000807
0.747495 0.196393 0.000726
0.216433 0.206413 -0.000726
0.761523 0.705411 -0.000554
0.585170 0.410822 -0.000044
0.114228 0.338677 -0.000010
0.819639 0.068136 -0.001093
0.478958 0.851703 -0.000257
0.004008 0.817635 0.001089
0.406814 0.677355 -0.001359
0.651303 0.414830 -0.000125
0.434870 0.651303 0.000434
0.338677 0.234469 -0.001166
0.300601 0.841683 0.002316
0.006012 0.276553 -0.000370
0.148297 0.599198 0.000358
0.869739 0.250501 -0.000161
0.683367 0.853707 -0.000948
0.314629 0.436874 0.000582
0.146293 0.761523 -0.000450
0.216433 0.476954 0.000283
0.160321 0.008016 -0.001467
0.346693 0.905812 0.000795
0.723447 0.406814 0.000336
0.422846 0.727455 -0.000278
0.042084 0.266533 -0.002245
0.805611 0.490982 0.002000
0.408818 0.310621 -0.002340
0.517034 0.188377 0.000236
0.138277 0.036072 -0.001642
0.052104 0.332665 -0.002937
0.569138 0.098196 -0.000632
0.250501 0.072144 0.000117
0.733467 0.729459 -0.000595
0.216433 0.987976 0.000288
0.749499 0.054108 0.001260
0.308617 0.284569 -0.001590
0.517034 0.595190 -0.000100
0.428858 0.715431 -0.001646
0.739479 0.919840 0.000944
0.969940 0.332665 0.001294
0.272545 0.843687 0.000286
0.561122 0.122244 -0.000795
0.104208 0.529058 -0.001026
0.092184 0.663327 0.000910
0.523046 0.939880 0.000017
0.519038 1.000000 -0.000197
0.198397 0.547094 0.000658
0.088176 0.953908 0.000252
0.953908 0.282565 0.001466
0.699399 0.078156 -0.000423
0.903808 0.394790 -0.000012
0.476954 0.935872 0.000245
0.006012 0.290581 -0.000515
0.470942 0.857715 -0.002623
0.823647 0.597194 0.000090
0.855711 0.685371 0.000531
0.008016 0.623246 -0.000252
0.851703 0.348697 0.000595
0.166333 0.154309 0.000670
0.945892 0.148297 -0.001794
0.050100 0.222445 0.000463
0.723447 0.458918 0.000612
0.559118 0.567134 0.000312
0.374749 0.082164 -0.001775
0.543086 0.278557 0.000628
0.220441 0.376754 0.000377
0.096192 0.893788 -0.001377
0.703407 0.631263 0.000906
0.959920 0.719439 0.001224
0.416834 0.685371 -0.000850
0.008016 0.026052 -0.000251
0.891784 0.286573 -0.000557
0.849699 0.378758 0.000495
0.362725 0.835671 0.002321
0.416834 0.869739 -0.000332
0.733467 0.094188 -0.001763
0.605210 0.695391 0.000355
0.895792 0.735471 -0.000123
0.272545 0.414830 -0.000060
0.136273 0.478958 -0.000626
0.032064 0.482966 0.000107
0.603206 0.282565 0.000091
0.917836 0.140281 0.000386
0.370741 0.715431 -0.001483
0.751503 0.557114 0.001736
0.458918 0.671343 -0.002083
0.941884 0.286573 -0.000448
0.931864 0.577154 0.000062
0.174349 0.843687 -0.001382
0.488978 0.699399 -0.001724
0.068136 0.995992 -0.000361
0.675351 0.647295 -0.001822
0.595190 0.396794 -0.000863
0.466934 0.511022 -0.000555
0.675351 0.498998 0.000068
0.290581 0.222445 0.001149
0.643287 0.525050 0.000943
0.144289 0.352705 0.000159
0.959920 0.152305 -0.000595
0.090180 0.995992 0.000202
0.074148 0.529058 -0.000500
0.022044 0.827655 0.000998
0.214429 0.078156 -0.001003
0.507014 0.464930 -0.000416
0.593186 0.374749 -0.000296
0.679359 0.126253 -0.000105
0.583166 0.050100 0.000919
0.845691 0.905812 -0.000472
0.831663 0.178357 0.000094
0.196393 0.026052 -0.000827
0.955912 0.476954 -0.000271
0.655311 0.378758 -0.002447
0.254509 0.108216 0.000292
0.098196 0.635271 -0.000073
0.553106 0.705411 -0.000468
0.044088 0.971944 -0.000038
0.182365 0.633267 -0.000150
0.689379 0.979960 0.000369
0.879760 0.350701 0.002678
0.488978 0.220441 0.000421
0.769539 0.519038 0.000671
0.386774 0.008016 0.000277
0.356713 0.543086 -0.000151
0.957916 0.162325 0.000060
0.378758 0.446894 -0.000358
0.202405 0.667335 -0.000407
0.933868 0.813627 0.001368
0.575150 0.571142 0.000735
0.038076 0.482966 0.000090
0.547094 0.184369 0.000117
0.390782 0.937876 0.000906
0.488978 0.759519 -0.002271
0.238477 0.525050 0.001786
0.116232 0.474950 -0.000580
0.068136 0.448898 0.001088
0.915832 0.080160 -0.003378
0.677355 0.563126 -0.000316
0.983968 0.523046 0.000836
0.623246 0.837675 0.001687
0.344689 0.094188 -0.000576
0.214429 0.753507 -0.000733
0.833667 0.711423 0.001950
0.306613 0.603206 0.000894
0.813627 0.733467 0.001126
0.721443 0.931864 0.001841
0.685371 0.641283 -0.001467
0.308617 0.865731 0.001269
0.935872 0.118236 -0.001687
0.909820 0.186373 0.000154
0.717435 0.064128 -0.000796
0.795591 0.416834 -0.000323
0.767535 0.192385 0.002288
0.791583 0.466934 0.000797
0.092184 0.729459 0.000186
0.106212 0.555110 -0.001861
0.238477 0.745491 -0.000303
0.833667 0.751503 0.001768
0.685371 0.957916 -0.000555
0.224449 0.082164 -0.001232
0.659319 0.965932 0.001246
0.985972 0.144289 -0.000737
0.881764 0.783567 0.001926
0.026052 0.158317 -0.000085
0.132265 0.721443 -0.001670
0.503006 0.649299 -0.001623
0.715431 0.010020 -0.000078
0.671343 0.190381 -0.000096
0.959920 0.186373 0.000989
0.044088 0.116232 -0.000911
0.953908 0.012024 0.000644
0.547094 0.420842 0.000126
0.490982 0.038076 0.000968
0.973948 0.533066 0.000424
0.557114 0.060120 0.000694
0.212425 0.032064 -0.001270
0.907816 0.893788 0.001936
0.296593 0.038076 -0.000017
0.669339 0.713427 0.000272
0.370741 0.767535 0.000155
0.148297 0.118236 0.000518
0.901804 0.086172 -0.001777
0.987976 0.983968 -0.000808
0.965932 0.567134 -0.001384
0.432866 0.436874 0.001538
0.859719 0.176353 0.001123
0.396794 0.557114 0.000875
0.406814 0.496994 -0.000554
0.563126 0.843687 0.000397
0.228457 0.498998 -0.000122
0.581162 0.314629 0.000359
0.046092 0.545090 0.002116
0.787575 0.100200 -0.000363
0.488978 0.811623 -0.000500
0.016032 0.266533 -0.001660
0.060120 0.967936 0.001393
0.659319 0.390782 -0.000954
0.474950 0.551102 0.000010
0.965932 0.024048 0.000494
0.078156 0.044088 0.000769
0.771543 0.771543 0.000841
0.735471 0.513026 -0.001347
0.617234 0.006012 0.000271
0.214429 0.537074 0.000740
1.000000 0.406814 -0.001093
0.739479 0.010020 0.000194
0.733467 0.955912 0.001514
0.799599 0.887776 -0.000360
0.803607 0.971944 0.000445
0.052104 0.444890 -0.000241
0.174349 0.631263 -0.000384
0.901804 0.927856 -0.000687
0.256513 0.809619 -0.001178
0.108216 0.084168 -0.000050
0.829659 0.551102 0.001572
0.310621 0.959920 -0.000214
0.376754 0.214429 -0.000027
0.819639 0.661323 0.001430
0.068136 0.276553 -0.000392
0.941884 0.448898 -0.000346
0.062124 0.340681 0.000047
0.597194 0.376754 0.000096
0.498998 0.629259 -0.000864
0.266533 0.124248 0.000542
0.030060 0.018036 0.000207
0.837675 0.222445 -0.000023
0.811623 0.124248 -0.000448
0.230461 0.673347 -0.002092
0.567134 0.200401 -0.001320
0.402806 0.947896 0.000807
0.797595 0.100200 0.000519
0.993988 0.793587 -0.000363
0.617234 0.272545 0.000374
0.925852 0.232465 0.000779
0.925852 0.763527 -0.001748
0.587174 0.603206 0.000383
0.432866 0.853707 0.000839
0.705411 0.785571 -0.000210
0.254509 0.302605 -0.000952
0.687375 0.977956 0.000307
0.416834 0.384770 -0.001693
0.250501 0.062124 -0.001075
0.372745 0.192385 0.000025
0.092184 0.118236 -0.001080
0.254509 0.142285 -0.001044
0.601202 0.857715 -0.001108
0.094188 0.188377 -0.000896
0.018036 0.246493 -0.002369
0.553106 0.148297 0.000135
0.082164 0.519038 0.000355
0.420842 0.559118 -0.001262
0.208417 0.246493 0.000532
0.679359 0.460922 0.000994
0.827655 0.308617 -0.000800
0.230461 0.589178 -0.000108
0.488978 0.164329 0.001349
0.917836 0.839679 0.000208
0.290581 0.184369 0.000058
0.795591 0.370741 -0.000570
0.298597 0.050100 0.000821
0.132265 0.515030 -0.000029
0.791583 0.671343 -0.000035
0.014028 0.929860 -0.000730
0.889780 0.817635 -0.000926
0.987976 0.841683 0.000697
0.010020 0.853707 0.000024
0.509018 0.849699 -0.000543
0.917836 0.318637 -0.000965
0.579158 0.833667 -0.000916
0.937876 0.062124 -0.000474
0.148297 0.777555 -0.000162
0.230461 0.687375 -0.001145
0.717435 0.913828 -0.000173
0.821643 0.879760 0.001316
0.737475 0.955912 0.002355
0.901804 0.743487 -0.000965
0.032064 0.226453 0.001187
0.845691 0.240481 0.000294
0.254509 0.216433 -0.000009
0.304609 0.607214 -0.000546
0.895792 0.432866 -0.000176
0.575150 0.188377 -0.000794
0.270541 0.148297 -0.000295
0.400802 0.040080 -0.000439
0.573146 0.915832 -0.000331
0.094188 0.430862 -0.000277
0.513026 0.945892 0.000432
0.020040 0.254509 -0.001325
0.851703 0.314629 0.000267
0.268537 0.384770 -0.001727
0.142285 0.729459 -0.000229
0.406814 0.310621 -0.002196
0.949900 0.769539 -0.000983
0.138277 0.272545 -0.001080
0.166333 0.314629 -0.001293
0.126253 0.402806 0.001166
0.318637 0.987976 0.001028
0.330661 0.390782 0.001506
0.104208 0.302605 -0.001374
0.673347 0.392786 -0.000745
0.665331 0.667335 0.000937
0.158317 0.603206 0.001781
0.569138 0.711423 -0.000788
0.078156 0.438878 -0.001020
0.398798 0.643287 0.000460
0.302605 0.114228 0.000015
0.188377 0.194389 0.000412
0.947896 0.715431 0.001063
0.939880 0.092184 -0.001777
0.615230 0.092184 -0.000310
0.567134 0.857715 -0.000562
0.498998 0.418838 -0.000527
0.993988 0.565130 -0.000784
0.645291 0.927856 0.003702
0.312625 0.795591 -0.002199
0.549098 0.224449 0.001995
0.981964 0.260521 0.001346
0.322645 0.070140 0.000048
0.058116 0.605210 -0.001061
0.663327 0.102204 -0.000544
0.885772 0.849699 0.000027
0.855711 0.330661 0.000341
0.699399 0.358717 -0.000051
0.172345 0.402806 -0.000755
0.038076 0.503006 0.000219
0.160321 0.715431 0.000647
0.156313 0.482966 0.001464
0.631263 0.747495 0.000164
0.597194 0.917836 0.000988
0.691383 0.779559 -0.000812
0.535070 0.567134 -0.000546
0.973948 0.519038 0.000317
0.793587 0.995992 -0.000273
0.154309 0.240481 -0.001046
0.080160 0.320641 -0.000337
0.615230 0.511022 0.000775
0.446894 0.232465 -0.001484
0.090180 0.951904 0.000269
0.813627 0.182365 -0.000589
0.913828 0.511022 0.000463
0.216433 0.302605 0.000252
0.563126 0.402806 -0.000342
0.805611 0.781563 0.000805
0.837675 0.362725 0.001374
0.917836 0.699399 -0.001181
0.472946 0.222445 0.001470
0.228457 0.961924 -0.001317
0.326653 0.196393 0.000236
0.569138 0.146293 0.000560
0.074148 0.098196 -0.000463
0.260521 0.915832 -0.000476
0.955912 0.907816 0.001309
0.971944 0.428858 0.000253
0.753507 0.344689 -0.000184
0.511022 0.288577 0.000783
0.669339 0.158317 -0.000529
0.122244 0.466934 -0.000841
0.432866 0.324649 -0.001802
0.154309 0.817635 -0.000292
0.671343 0.288577 0.002015
0.498998 0.983968 0.000294
0.709419 0.579158 -0.000315
0.150301 0.126253 -0.000317
0.583166 0.649299 -0.001581
0.318637 0.707415 -0.000721
0.010020 0.296593 0.000413
0.757515 0.605210 0.001296
0.482966 0.010020 0.000502
0.517034 0.589178 0.000219
0.857715 0.655311 0.001778
0.250501 0.703407 -0.001665
0.819639 0.154309 -0.001218
0.891784 0.170341 -0.000097
0.679359 0.204409 -0.000264
0.609218 0.773547 0.001594
0.763527 0.204409 0.000633
0.338677 0.368737 0.001804
0.537074 0.200401 0.000122
0.002004 0.190381 -0.000789
0.817635 0.230461 0.000762
0.134269 0.104208 0.000190
0.352705 0.879760 0.001397
0.114228 0.228457 -0.002197
0.635271 0.673347 -0.000459
0.298597 0.326653 -0.000853
0.925852 0.148297 0.001042
0.961924 0.432866 0.000150
0.496994 0.360721 -0.000215
0.981964 0.322645 0.000559
0.210421 0.511022 0.000740
0.911824 0.306613 -0.001458
0.805611 0.070140 0.000067
0.296593 0.865731 0.002049
0.661323 0.496994 0.000314
0.563126 0.228457 -0.000015
0.450902 0.751503 0.000669
0.286573 0.400802 -0.000544
0.851703 0.975952 0.000003
0.018036 0.817635 0.002327
0.763527 0.132265 0.000831
0.577154 0.983968 -0.000899
0.302605 0.056112 -0.000124
0.380762 0.681363 -0.000809
0.230461 0.260521 -0.000158
0.444890 0.346693 -0.001794
0.537074 0.771543 0.000484
0.442886 0.555110 -0.000496
0.519038 0.060120 -0.000424
0.521042 0.517034 0.001236
0.675351 0.501002 -0.000628
0.266533 0.338677 0.000209
0.496994 0.567134 0.000906
0.551102 0.923848 0.001292
0.240481 0.254509 0.000589
0.358717 0.867735 0.002522
0.306613 0.665331 0.001137
0.252505 0.579158 0.000934
0.490982 0.975952 0.001518
0.072144 0.228457 -0.000386
0.164329 0.012024 -0.000689
0.430862 0.002004 0.000736
0.222445 0.472946 0.000238
0.945892 0.462926 0.000252
0.863727 0.310621 0.000261
0.635271 0.018036 0.001023
0.262525 0.781563 -0.001119
0.941884 0.280561 -0.002139
0.142285 0.008016 -0.000945
0.745491 0.505010 -0.000922
0.717435 0.763527 0.001221
0.356713 0.042084 -0.000080
0.611222 0.769539 0.001246
0.547094 0.613226 -0.000019
0.432866 0.501002 0.000513
0.180361 0.482966 -0.000037
0.136273 0.402806 0.000025
0.723447 0.180361 0.000640
0.308617 0.925852 -0.001541
0.729459 0.012024 0.000557
0.320641 0.366733 0.001312
0.633267 0.014028 0.001357
0.110220 0.110220 -0.001390
0.939880 0.823647 0.000823
0.244489 0.909820 -0.000828
0.302605 0.074148 -0.001271
0.769539 0.547094 -0.000046
0.414830 0.547094 -0.000824
0.885772 0.156313 -0.000762
0.695391 0.440882 -0.000100
0.314629 0.549098 0.000547
0.921844 0.521042 -0.000350
0.240481 0.557114 0.000543
0.094188 0.312625 -0.000855
0.006012 0.869739 0.000551
0.108216 0.873747 0.001254
0.384770 0.975952 0.001320
0.406814 0.995992 -0.000141
0.643287 0.224449 0.000354
0.492986 0.841683 -0.001630
0.078156 0.088176 -0.000205
0.701403 0.831663 -0.000638
0.074148 0.044088 0.000684
0.342685 0.961924 -0.000273
0.637275 0.879760 -0.000806
0.599198 0.735471 0.000699
0.865731 0.438878 0.001456
0.318637 0.076152 0.000148
0.737475 0.136273 -0.000321
0.585170 0.208417 -0.001103
0.939880 0.184369 -0.000098
0.194389 0.422846 -0.002319
0.216433 0.921844 0.001324
0.921844 0.222445 0.002072
0.983968 0.404810 -0.000680
0.046092 0.048096 -0.000719
0.589178 0.527054 0.000770
0.769539 0.310621 -0.001310
0.388778 0.521042 -0.000799
0.705411 0.549098 -0.000724
0.168337 0.801603 -0.001116
0.645291 0.008016 0.000729
0.919840 0.605210 0.000372
0.743487 0.749499 -0.000389
0.883768 0.599198 -0.000374
0.577154 0.424850 -0.000408
0.609218 0.845691 -0.000140
0.356713 0.184369 -0.000618
0.781563 0.198397 -0.000427
0.494990 0.348697 -0.000003
0.156313 0.741483 -0.000823
0.785571 0.342685 -0.000423
0.821643 0.583166 -0.000181
0.426854 0.282565 -0.002240
0.262525 0.773547 -0.000245
0.605210 0.767535 0.001263
0.925852 0.374749 0.000188
0.681363 0.933868 -0.000133
0.420842 0.214429 0.000653
0.496994 0.841683 -0.001894
0.264529 0.601202 -0.000051
0.292585 0.915832 0.000645
0.292585 0.050100 0.000524
0.480962 0.991984 -0.000678
0.302605 0.699399 0.000170
0.154309 0.871743 0.000552
0.731463 0.703407 -0.002217
0.593186 0.022044 0.001074
0.470942 0.959920 0.000276
0.501002 0.144289 0.001316
0.024048 0.208417 0.000497
0.468938 0.126253 0.002348
0.879760 0.781563 0.001738
0.306613 0.929860 -0.000514
0.320641 0.891784 -0.000292
0.140281 0.773547 0.000052
0.683367 0.847695 0.000271
0.601202 0.300601 -0.001057
0.380762 0.380762 0.000287
0.829659 0.883768 0.000127
0.234469 0.012024 -0.000991
0.907816 0.106212 -0.002075
0.989980 0.268537 0.000561
0.030060 0.186373 0.000922
0.639279 0.959920 0.000113
0.627255 0.414830 0.000817
0.651303 0.731463 -0.000280
0.577154 0.523046 0.002302
0.382766 0.336673 0.001590
0.130261 0.294589 -0.003560
0.352705 0.138277 -0.000537
0.240481 0.272545 -0.001178
0.192385 0.304609 0.002438
0.855711 0.368737 -0.000377
0.857715 0.949900 -0.000403
0.957916 0.745491 -0.000985
0.647295 0.072144 -0.000828
0.450902 0.525050 -0.000407
0.951904 0.615230 0.000037
0.350701 0.689379 -0.000722
0.332665 0.004008 0.001946
0.901804 0.420842 -0.000433
0.076152 0.761523 0.000280
0.082164 0.386774 0.001543
0.751503 0.286573 -0.000506
0.665331 0.086172 -0.001296
0.995992 0.202405 -0.001493
0.328657 0.160321 0.000960
0.478958 0.643287 -0.000630
0.436874 0.941884 0.000491
0.513026 0.943888 0.000433
0.388778 0.020040 0.000080
0.541082 0.262525 0.000346
0.619238 0.725451 0.000194
0.519038 0.773547 -0.000098
0.132265 0.422846 0.000564
0.422846 0.859719 -0.000308
0.931864 0.695391 -0.000226
0.929860 0.537074 0.001170
0.320641 0.563126 -0.000982
0.533066 0.581162 0.000383
0.609218 0.947896 0.000040
0.234469 0.450902 -0.000311
0.889780 0.621242 -0.000279
0.909820 0.683367 -0.000007
0.809619 0.228457 0.000478
0.883768 0.162325 -0.000062
0.599198 0.723447 -0.000104
0.773547 0.625251 0.002529
0.148297 0.276553 -0.000683
1.000000 0.348697 0.001587
0.863727 0.376754 0.000300
0.953908 0.090180 -0.000096
0.853707 0.651303 0.002354
0.705411 0.515030 0.000414
0.212425 0.811623 0.000026
0.378758 0.893788 0.000687
0.496994 0.148297 0.001426
0.917836 0.837675 0.000428
0.020040 0.498998 0.002690
0.008016 0.100200 -0.000210
0.565130 0.244489 -0.000614
0.639279 0.501002 0.002707
0.647295 0.909820 0.001799
0.569138 0.825651 -0.000216
0.619238 0.066132 -0.000517
0.709419 0.703407 -0.000255
0.615230 0.791583 0.000655
0.927856 0.346693 -0.001412
0.322645 0.436874 0.000305
0.468938 0.919840 0.000664
0.691383 0.991984 0.000096
0.244489 0.929860 0.000208
0.783567 0.719439 0.002706
0.328657 0.400802 0.001485
0.104208 0.755511 0.000086
0.679359 0.703407 0.002868
0.959920 0.444890 0.000429
0.432866 0.627255 0.000678
0.723447 0.809619 0.000383
0.106212 0.685371 0.000222
0.412826 0.246493 -0.001826
0.909820 0.707415 -0.000727
0.621242 0.633267 0.000278
0.430862 0.062124 0.000878
0.078156 0.957916 0.000791
0.048096 0.521042 0.001063
0.793587 0.366733 -0.000971
0.438878 0.462926 0.002063
0.955912 0.623246 0.001197
0.749499 0.535070 0.000219
0.434870 0.000000 0.001036
0.058116 0.645291 -0.000054
0.098196 0.769539 0.000267
0.505010 0.547094 0.000123
0.212425 0.761523 -0.000920
0.935872 0.086172 -0.000865
0.515030 0.456914 0.001210
0.597194 0.927856 0.001584
0.525050 0.519038 0.001168
0.276553 0.775551 0.000559
0.675351 0.464930 0.001748
0.921844 0.498998 -0.001561
0.202405 0.779559 0.000440
0.242485 0.254509 0.000385
0.340681 0.392786 0.001319
0.681363 0.719439 0.001656
0.040080 0.729459 0.001528
0.338677 0.853707 0.002102
0.386774 0.018036 -0.000129
0.835671 0.240481 -0.000663
0.643287 0.979960 0.002295
0.883768 0.420842 0.001323
0.404810 0.537074 -0.000381
0.246493 0.474950 0.000446
0.787575 0.128257 0.000838
0.414830 0.148297 -0.002583
0.258517 0.831663 -0.000729
0.020040 0.709419 0.000066
0.118236 0.450902 -0.000348
0.270541 0.973948 -0.002233
0.525050 0.539078 0.001818
0.026052 0.817635 0.002010
0.110220 0.617234 -0.000455
0.174349 0.336673 0.000609
0.625251 0.286573 0.000697
0.609218 0.406814 -0.000819
0.228457 0.024048 -0.000471
0.713427 0.000000 -0.000028
0.573146 0.128257 0.000396
0.573146 0.306613 0.000871
0.597194 0.346693 -0.001728
0.775551 0.579158 0.000040
0.825651 0.260521 0.000228
0.168337 0.136273 0.000819
0.200401 0.296593 0.002969
0.805611 0.869739 0.000822
0.943888 0.054108 0.000603
0.579158 0.577154 -0.000195
0.793587 0.891784 -0.001086
0.629259 0.713427 -0.000243
0.044088 0.070140 -0.000893
0.839679 0.166333 -0.001152
0.066132 0.775551 -0.000811
0.270541 0.785571 -0.000511
0.585170 1.000000 -0.001974
0.318637 0.066132 -0.000134
0.581162 0.679359 -0.000621
0.503006 0.078156 -0.000613
0.605210 0.619238 -0.000589
0.925852 0.498998 -0.001105
0.513026 0.775551 -0.000064
0.038076 0.989980 -0.000560
0.929860 0.599198 0.000270
0.168337 0.318637 -0.000637
0.282565 0.318637 -0.000460
0.452906 0.222445 0.000010
0.673347 0.030060 0.000232
0.254509 0.444890 -0.000510
0.871743 0.503006 0.000468
0.547094 0.627255 -0.000493
0.811623 0.513026 0.002567
0.843687 0.342685 0.000173
0.326653 0.689379 0.000954
0.967936 0.168337 0.000716
0.424850 0.931864 0.001026
0.777555 0.004008 0.000859
0.218437 0.000000 -0.000429
0.545090 0.370741 -0.001025
0.573146 0.871743 0.000025
0.214429 0.014028 0.001231
0.993988 0.158317 0.000137
0.300601 0.875752 0.000710
0.891784 0.839679 -0.000135
0.234469 0.909820 0.000384
0.180361 0.537074 -0.001251
0.645291 0.002004 0.000348
0.979960 0.789579 0.000296
0.296593 0.026052 -0.001278
0.961924 0.993988 -0.001536
0.851703 0.242485 0.000237
0.747495 0.605210 0.001536
0.454910 0.068136 0.000665
0.543086 0.216433 0.000971
0.464930 0.609218 0.000304
0.535070 0.515030 0.000863
0.018036 0.663327 0.000950
0.240481 0.244489 0.000502
0.897796 0.110220 -0.001173
0.458918 0.356713 -0.000126
0.190381 0.054108 -0.000573
0.851703 0.685371 0.000567
0.196393 0.074148 -0.001373
0.404810 0.206413 -0.000582
0.655311 0.763527 0.000037
0.907816 0.757515 -0.000041
0.496994 0.402806 0.001832
0.727455 0.356713 -0.000506
0.184369 0.923848 0.000451
0.947896 0.853707 0.001640
0.028056 0.643287 -0.001657
0.791583 0.446894 -0.000528
0.703407 0.066132 -0.000225
0.853707 0.166333 -0.000314
0.412826 0.989980 0.000333
0.084168 0.082164 -0.000588
0.895792 0.891784 0.001682
0.082164 0.198397 -0.001405
0.398798 0.825651 0.000868
0.839679 0.248497 -0.001760
0.442886 0.657315 -0.000459
0.462926 0.164329 0.000851
0.651303 0.571142 0.000229
0.923848 0.763527 -0.001443
0.915832 0.206413 0.001430
0.809619 0.843687 -0.001192
0.344689 0.068136 0.000007
0.719439 0.028056 0.000047
0.525050 0.647295 -0.001176
0.052104 0.873747 -0.000373
0.406814 0.823647 0.000629
0.595190 0.308617 -0.000060
0.979960 0.482966 -0.000663
0.002004 0.683367 0.000161
0.641283 0.244489 -0.000087
0.404810 0.474950 -0.001211
0.855711 0.412826 0.000723
0.801603 0.783567 0.001237
0.567134 0.202405 -0.001748
0.965932 0.811623 -0.001305
0.813627 0.234469 0.000827
0.078156 0.831663 -0.000299
0.549098 0.232465 0.000782
0.849699 0.967936 -0.000221
0.382766 0.262525 -0.002670
0.621242 0.805611 -0.001900
0.715431 0.985972 -0.000455
0.649299 0.731463 -0.000739
0.426854 0.418838 0.001847
0.352705 0.919840 0.000023
0.939880 0.420842 0.000475
0.579158 0.679359 -0.000157
0.312625 0.651303 -0.000523
0.434870 0.767535 -0.001302
0.665331 0.104208 -0.001003
0.198397 0.162325 0.001063
0.593186 0.020040 0.000992
0.837675 0.240481 -0.000822
0.951904 0.342685 -0.000231
0.078156 0.098196 -0.000383
0.711423 0.557114 -0.001021
0.735471 0.921844 0.000872
0.555110 0.973948 -0.001055
0.338677 0.659319 -0.000142
0.937876 0.370741 0.001661
0.488978 0.787575 -0.000588
0.927856 0.220441 0.002344
0.889780 0.623246 -0.000984
0.408818 0.675351 -0.000644
0.661323 0.905812 0.000686
0.935872 0.633267 0.000065
0.997996 0.112224 -0.000762
0.204409 0.631263 -0.000226
0.444890 0.553106 -0.000627
0.745491 0.639279 0.001773
0.410822 0.759519 -0.000661
0.769539 0.777555 0.001717
0.314629 0.378758 0.000687
0.667335 0.703407 0.001563
0.857715 0.014028 -0.000330
0.579158 0.412826 0.000411
0.292585 0.815631 -0.000554
0.511022 0.458918 0.001060
0.394790 0.521042 -0.000096
0.631263 0.032064 -0.001664
0.575150 0.400802 0.000358
0.683367 0.214429 0.000311
0.847695 0.246493 0.000889
0.773547 0.414830 -0.001337
0.741483 0.561122 0.000039
0.749499 0.783567 0.001125
0.366733 0.699399 -0.000980
0.897796 0.549098 -0.000338
0.128257 0.755511 0.000648
0.372745 0.080160 -0.001490
0.521042 0.623246 -0.001049
0.488978 0.426854 0.002030
0.388778 0.070140 -0.001001
0.476954 0.539078 -0.000342
0.496994 0.931864 0.000252
0.430862 0.454910 0.001127
0.577154 0.068136 0.000089
0.130261 0.110220 0.000842
0.284569 0.472946 -0.000376
0.374749 0.066132 -0.000404
0.148297 0.092184 -0.000196
0.302605 0.174349 0.001370
0.248497 0.068136 -0.001021
0.132265 0.024048 -0.002263
0.531062 0.869739 -0.000173
0.112224 0.290581 -0.000742
0.236473 0.232465 0.000354
0.334669 0.543086 0.000667
0.833667 0.677355 0.000269
0.879760 0.496994 -0.001638
0.000000 0.635271 0.000953
0.280561 0.418838 0.000495
0.645291 0.997996 0.001053
0.368737 0.126253 0.000696
0.214429 0.531062 0.001371
0.226453 0.250501 -0.000277
0.571142 0.529058 0.001364
0.050100 0.472946 -0.000513
0.579158 0.629259 0.000647
0.496994 0.741483 0.000698
0.288577 0.521042 -0.001827
0.513026 0.817635 -0.000995
0.859719 0.436874 0.000645
0.472946 0.138277 0.000669
0.729459 0.366733 0.000572
0.036072 0.228457 0.000673
0.911824 0.517034 -0.000251
0.402806 0.070140 -0.000675
0.813627 0.350701 0.002313
0.470942 0.549098 -0.000653
0.232465 0.212425 -0.001437
0.224449 0.811623 -0.000846
0.561122 0.158317 -0.000324
0.246493 0.865731 0.000309
0.547094 0.366733 -0.001379
0.705411 0.168337 0.001024
0.280561 0.921844 0.001605
0.046092 0.863727 -0.000458
0.370741 0.000000 -0.000471
0.198397 0.244489 0.000858
0.304609 0.396794 0.000726
0.969940 0.050100 0.000057
0.348697 0.306613 -0.000364
0.815631 0.258517 -0.000784
0.172345 0.729459 -0.000252
0.739479 0.060120 0.001089
0.811623 0.705411 0.002509
0.547094 0.645291 0.000543
0.903808 0.250501 -0.000209
0.280561 0.679359 -0.002079
0.811623 0.817635 -0.000374
0.440882 0.751503 -0.000351
0.066132 0.344689 -0.000605
0.428858 0.454910 0.000744
0.587174 0.637275 -0.001811
0.472946 0.294589 -0.000295
0.044088 0.034068 -0.000243
0.829659 0.230461 0.001223
0.575150 0.370741 0.001065
0.955912 0.448898 0.000881
0.551102 0.607214 0.000981
0.152305 0.250501 -0.002381
0.701403 0.673347 0.000269
0.677355 0.581162 -0.000512
0.991984 0.671343 0.001853
0.959920 0.949900 -0.001487
0.148297 0.693387 0.000315
0.358717 0.715431 -0.001118
0.863727 0.242485 -0.000342
0.887776 0.268537 0.000340
0.276553 0.891784 -0.000261
0.392786 0.693387 -0.000820
0.134269 0.102204 0.000090
0.605210 0.272545 0.000980
0.887776 0.537074 -0.000639
0.126253 0.673347 0.000214
0.505010 0.300601 0.001260
0.176353 0.961924 -0.001517
0.028056 0.655311 0.000347
0.939880 0.767535 -0.000133
0.390782 0.304609 -0.001111
0.494990 0.771543 -0.000449
0.352705 0.436874 0.000517
0.911824 0.278557 -0.002208
0.937876 0.569138 0.001123
0.603206 0.308617 -0.000967
0.436874 0.294589 -0.001269
0.645291 0.527054 0.000801
0.158317 0.673347 -0.000256
0.587174 0.154309 0.000708
0.821643 0.659319 0.001439
0.809619 0.074148 -0.001080
0.204409 0.430862 -0.001451
0.947896 0.074148 -0.000364
0.631263 0.160321 0.000127
0.260521 0.939880 -0.000568
0.587174 0.775551 -0.000167
0.901804 0.877756 0.001853
0.719439 0.633267 -0.000142
0.096192 0.004008 -0.000215
0.857715 0.348697 0.000319
0.486974 0.781563 -0.001540
0.653307 0.482966 0.000775
0.663327 0.066132 0.000417
0.188377 0.184369 0.001174
0.358717 0.659319 0.000158
0.316633 0.304609 -0.000645
0.901804 0.440882 -0.000587
0.639279 0.404810 0.000402
0.418838 0.785571 -0.001275
0.959920 0.066132 -0.000241
0.553106 0.781563 0.001470
0.665331 0.725451 -0.000150
0.346693 0.452906 0.000793
0.430862 0.595190 -0.000419
0.438878 0.208417 -0.000884
0.601202 0.559118 -0.000384
0.539078 0.589178 0.001192
0.322645 0.214429 -0.000778
0.683367 0.603206 0.000144
0.416834 0.839679 0.000555
0.290581 0.779559 -0.000053
0.709419 0.575150 -0.000975
0.677355 0.603206 0.000292
0.034068 0.867735 -0.000305
0.122244 0.923848 -0.001414
0.294589 0.178357 0.000092
0.993988 0.284569 -0.000716
0.484970 0.108216 0.001628
0.535070 0.366733 -0.000844
0.723447 0.304609 0.000557
0.364729 0.983968 0.001975
0.741483 0.038076 -0.000195
0.523046 0.450902 0.001134
0.104208 0.753507 0.000448
0.545090 0.953908 0.000674
0.170341 0.022044 0.000281
0.168337 0.392786 -0.000266
0.933868 0.232465 0.000868
0.228457 0.196393 -0.000917
0.376754 0.146293 -0.001067
0.094188 0.320641 -0.000243
0.132265 0.476954 -0.001865
0.611222 0.152305 0.001069
0.056112 0.995992 -0.000705
0.573146 0.841683 -0.000168
0.557114 0.490982 0.000171
0.727455 0.959920 0.000756
0.981964 0.030060 -0.000779
0.422846 0.310621 -0.001676
0.498998 0.939880 0.000840
0.450902 0.030060 -0.000079
0.132265 0.547094 0.000880
0.062124 0.352705 -0.000277
0.394790 0.250501 -0.001354
0.639279 0.953908 0.000459
0.719439 0.466934 -0.000935
0.647295 0.563126 -0.001220
0.338677 0.360721 0.000475
0.038076 0.426854 0.000276
0.521042 0.388778 -0.000711
0.302605 0.086172 -0.002174
0.935872 0.420842 -0.000330
0.767535 0.587174 -0.000683
0.208417 0.821643 -0.000182
0.755511 0.845691 0.002614
0.248497 0.362725 -0.001392
0.735471 0.450902 0.002271
0.965932 0.771543 -0.001500
0.422846 0.080160 0.000497
0.531062 0.204409 0.001166
0.342685 0.070140 -0.000831
0.286573 0.625251 0.000694
0.276553 0.212425 0.000272
0.917836 0.316633 -0.000925
0.921844 0.883768 0.002762
0.645291 0.362725 -0.000508
0.677355 0.971944 0.000181
0.382766 0.823647 -0.000086
0.691383 0.523046 -0.000266
0.537074 0.432866 0.001705
0.236473 0.713427 -0.001434
0.228457 0.953908 -0.001901
0.334669 0.679359 -0.000175
0.697395 0.112224 -0.002065
0.741483 0.847695 0.002021
0.132265 0.699399 0.000849
0.615230 0.274549 0.000724
0.128257 0.539078 -0.000343
0.947896 0.627255 0.000253
0.126253 0.811623 -0.000717
0.098196 0.172345 0.001015
0.442886 0.557114 -0.000787
0.142285 0.216433 0.000307
0.833667 0.290581 0.000841
0.781563 0.951904 0.001054
0.925852 0.204409 0.001315
0.258517 0.927856 -0.000014
0.212425 0.623246 -0.001127
0.777555 0.130261 -0.000147
0.501002 0.282565 0.000138
0.809619 0.721443 0.001249
0.088176 0.358717 -0.000816
0.995992 0.248497 -0.000119
0.573146 0.667335 -0.001907
0.979960 0.955912 -0.001006
0.322645 0.621242 -0.002410
0.462926 0.909820 0.001016
0.324649 0.488978 0.000829
0.613226 0.318637 -0.000267
0.523046 0.787575 0.000157
0.531062 0.667335 -0.001301
0.102204 0.376754 -0.000822
0.775551 0.090180 -0.000296
0.120240 0.811623 -0.000020
0.424850 0.939880 0.001010
0.737475 0.859719 0.000997
0.436874 0.052104 0.000727
0.769539 0.807615 -0.000084
0.771543 0.146293 -0.000153
0.496994 0.242485 -0.000052
0.018036 0.943888 0.001393
0.567134 0.861723 -0.000010
0.094188 0.871743 0.000182
0.707415 0.114228 -0.000565
0.382766 0.242485 -0.002236
0.607214 0.975952 -0.000781
0.210421 0.879760 0.001444
0.034068 0.599198 -0.002430
0.308617 0.016032 0.000965
0.893788 0.136273 -0.001707
0.899800 0.911824 0.000560
0.208417 0.795591 -0.001660
0.446894 0.697395 -0.001467
0.052104 0.879760 -0.000236
0.158317 0.943888 -0.000662
0.482966 0.258517 0.001645
0.174349 0.587174 0.001726
0.723447 0.969940 -0.000073
0.338677 0.016032 0.001648
0.965932 0.857715 0.001069
0.112224 0.849699 0.000384
0.086172 0.488978 -0.001106
0.488978 0.905812 0.000264
0.400802 0.695391 -0.000553
0.282565 0.531062 -0.000983
0.789579 0.088176 0.000309
0.248497 0.535070 0.000064
0.088176 0.819639 0.000188
0.905812 0.028056 0.000232
0.366733 0.861723 0.001201
0.288577 0.657315 0.001244
0.414830 0.575150 -0.000818
0.573146 0.627255 0.001550
0.202405 0.549098 0.001279
0.699399 0.767535 0.001090
0.114228 0.296593 -0.001781
0.408818 0.364729 -0.001215
0.124248 0.957916 0.000613
0.949900 0.707415 0.001007
0.124248 0.270541 -0.003002
0.110220 0.446894 -0.000904
0.152305 0.058116 0.000284
0.831663 0.805611 0.001164
0.729459 0.789579 -0.000357
0.054108 0.152305 0.000365
0.022044 0.955912 -0.000799
0.913828 0.925852 -0.000091
0.615230 0.747495 0.001842
0.376754 0.412826 -0.000414
0.707415 0.440882 0.000261
0.823647 0.835671 0.000721
0.474950 0.174349 0.000005
0.086172 0.450902 -0.000559
0.669339 0.050100 -0.001536
0.202405 0.633267 0.000897
0.879760 0.370741 0.001249
0.460922 0.084168 0.000886
0.567134 0.154309 -0.000218
0.188377 0.400802 -0.000055
0.410822 0.661323 0.001697
0.777555 0.236473 -0.000350
0.569138 0.038076 -0.000187
0.573146 0.815631 0.000655
0.250501 0.126253 -0.000078
0.258517 0.857715 0.001856
0.244489 0.444890 -0.000357
0.340681 0.693387 -0.000160
0.302605 0.168337 0.000817
0.797595 0.577154 0.000311
0.034068 0.539078 0.000578
0.354709 0.877756 0.001429
0.428858 0.799599 -0.000736
0.945892 0.857715 0.001559
0.875752 0.873747 0.000466
0.853707 0.100200 -0.002750
0.879760 0.967936 -0.001370
0.400802 0.446894 -0.001780
0.795591 0.194389 0.000439
0.110220 0.486974 0.000502
0.148297 0.114228 0.000008
0.805611 0.300601 -0.001511
0.312625 0.036072 0.000793
0.324649 0.064128 -0.000044
0.288577 0.565130 -0.000565
0.861723 0.795591 0.000945
0.070140 0.689379 -0.000005
0.803607 0.380762 0.000125
0.719439 0.547094 -0.000044
0.438878 0.428858 0.002108
0.635271 0.647295 -0.000907
0.867735 0.408818 0.001259
0.789579 0.284569 0.000177
0.108216 0.438878 -0.000278
0.326653 0.563126 -0.001019
0.565130 0.937876 0.000269
0.264529 0.046092 -0.000866
0.262525 0.030060 -0.001670
0.897796 0.004008 -0.001090
0.853707 0.214429 -0.001087
0.344689 0.727455 -0.001020
0.400802 0.605210 0.002051
0.264529 0.440882 -0.001951
0.052104 0.701403 0.002096
0.789579 0.356713 -0.000547
0.953908 0.242485 0.002102
0.841683 0.098196 -0.001586
0.478958 0.597194 -0.000373
0.967936 0.070140 -0.000879
0.517034 0.981964 0.000591
0.735471 0.923848 0.001073
0.170341 0.631263 -0.000871
0.342685 0.679359 -0.001175
0.282565 0.210421 -0.001097
0.535070 0.981964 -0.000987
0.933868 0.639279 -0.000628
0.955912 0.422846 0.000135
0.881764 0.196393 -0.001229
0.875752 0.505010 -0.000930
0.094188 0.971944 0.000270
0.198397 0.034068 -0.000329
0.853707 0.635271 -0.000285
0.767535 0.591182 0.000223
0.781563 0.571142 0.000011
0.086172 0.314629 -0.000303
0.212425 0.422846 -0.001944
0.148297 0.871743 -0.000690
0.270541 0.811623 -0.001393
0.214429 0.699399 -0.000011
0.851703 0.929860 0.001052
0.753507 0.388778 0.000970
0.761523 0.845691 0.002219
0.130261 0.951904 0.000512
0.985972 0.619238 -0.000276
0.436874 0.895792 0.000402
0.236473 0.699399 -0.001391
0.104208 0.362725 -0.001179
0.178357 0.414830 -0.002862
0.609218 0.402806 -0.000102
0.809619 0.953908 0.001341
0.789579 0.348697 0.000426
0.442886 0.665331 -0.000931
0.663327 0.168337 -0.000409
0.042084 0.014028 -0.000650
0.192385 0.424850 -0.002059
0.711423 0.935872 0.000720
0.921844 0.941884 0.000526
0.270541 0.008016 -0.001446
0.503006 0.703407 -0.001021
0.703407 0.224449 0.001366
0.659319 0.943888 0.000949
0.819639 0.559118 0.001524
0.861723 0.482966 -0.000203
0.941884 0.202405 -0.001261
0.378758 0.084168 -0.001423
0.236473 0.352705 0.001688
0.312625 0.799599 -0.001997
0.519038 0.032064 0.000944
0.000000 0.585170 -0.000797
0.136273 0.256513 -0.001356
0.801603 0.517034 0.001008
0.511022 0.925852 -0.000762
0.617234 0.543086 -0.000720
0.943888 0.723447 -0.000423
0.739479 0.889780 0.001542
0.036072 0.929860 0.000107
0.438878 0.184369 -0.000300
0.276553 0.769539 0.000783
0.847695 0.523046 -0.000557
0.086172 0.751503 0.001161
0.340681 0.264529 -0.000895
0.414830 0.496994 -0.001260
0.372745 0.010020 0.000588
0.234469 0.032064 -0.001490
0.112224 0.803607 0.001343
0.891784 0.519038 -0.000423
0.062124 0.939880 0.000060
0.308617 0.194389 0.000360
0.829659 0.681363 0.000354
0.320641 0.294589 -0.001630
0.993988 0.122244 -0.000795
0.146293 0.442886 -0.000830
0.472946 0.905812 0.001220
0.787575 0.108216 0.000036
0.388778 0.090180 -0.000228
0.959920 0.799599 -0.000384
0.627255 0.198397 -0.000877
0.358717 0.076152 -0.000266
0.018036 0.376754 -0.000671
0.000000 0.805611 -0.000698
